# .PCD v0.7 - Point Cloud Data file format
VERSION 0.7
FIELDS x y z intensity
SIZE 4 4 4 4
TYPE F F F F
COUNT 1 1 1 1
WIDTH 1320
HEIGHT 1
VIEWPOINT 0 0 0 1 0 0 0
POINTS 1320
DATA ascii
-43.777233 55.634293 7.2162752 9
-43.638988 -13.210186 7.6156797 14
-43.745785 -12.927609 7.7045298 14.02125
-43.885208 -12.534469 7.78825 14
-43.941578 3.9718997 7.8612165 12
-43.821896 4.2276745 7.8107467 12.862069
-43.699665 4.6433659 7.8802752 12
-43.791355 5.0075283 7.8105917 12
-43.701611 5.4469109 7.7842031 12.56
-43.886154 5.7335348 7.7578273 12.952381
-43.982311 6.0370297 7.6816044 14
-43.863029 55.598484 7.7753425 9
-43.75518 55.729153 7.790884 9
-43.795425 4.2080436 8.2065344 12.909091
-43.705711 4.6128511 8.1081934 12
-43.74155 5.0879679 8.2291155 12
-43.782921 5.4465804 8.185894 12.675
-43.874313 5.6834641 8.1230259 13.666667
-43.651543 55.923496 8.3780661 10
-43.807705 4.1767888 8.5954094 12.956076
-43.671387 4.6595416 8.7290106 12
-43.697315 5.003849 8.6189651 12.013389
-43.759666 5.448648 8.6102037 13.090909
-43.930241 5.6549125 8.5332298 13.285714
-43.955406 55.560135 8.657033 10
-43.819756 55.72485 8.6814461 10
-43.870102 56.184006 8.7194786 10.08275
-43.803593 4.2220058 8.9798985 12.712556
-43.695652 4.6184869 9.0406446 12
-43.783512 5.0071101 9.0341911 12.166667
-43.795147 5.4306145 8.9844332 13
-43.920963 5.6779542 8.8566513 13.75
-43.886707 55.510403 9.1168728 10
-43.774063 55.77219 8.9681978 10
-43.639194 56.090263 8.8562031 10
-43.974087 3.9585693 9.4654217 13
-43.845367 4.2346263 9.4105368 12.76
-43.760796 4.5809355 9.4404163 12.235294
-43.758968 5.0353694 9.3617868 12.705882
-43.79562 5.4147911 9.3753738 13.310345
-43.943035 5.659759 9.41539 13.6
-43.8936 55.536453 9.4245882 10
-43.785805 55.727409 9.4127121 10.008875
-43.686195 56.163219 9.4926376 10
-43.819977 4.1443834 9.7592983 13.384615
-43.750355 4.6289988 9.7096605 13
-43.808754 4.9097466 9.7037916 13
-43.815048 5.4068303 9.8374128 13.642858
-43.851562 55.412014 9.6705914 10.043215
-43.665573 55.809731 9.6114969 10
-43.761791 56.030647 9.7022381 10.098
-43.988613 3.989552 10.004043 14
-43.779732 4.1371384 10.193775 13.133333
-43.698479 4.6771841 10.155699 13
-43.738213 5.0118742 10.200356 13.105263
-43.851273 5.3781056 10.212705 13.588235
-43.951359 5.6091599 10.119578 14
-43.868622 3.9783688 10.790031 14
-43.76936 4.1954556 10.586863 13.260333
-43.706291 4.5846543 10.686182 13.222222
-43.756386 5.0080881 10.666602 13.446
-43.879333 5.3594723 10.578227 13.909091
-43.82584 4.2315922 10.994312 13.357142
-43.760265 4.5947342 11.030177 13.5
-43.771603 5.0040364 10.974832 13.684211
-43.851654 5.2983074 11.03397 13.7414
-43.741398 55.072079 10.822708 11
-43.839966 55.515965 11.055444 11
-43.738407 55.70697 11.035067 11.004375
-43.662693 3.8822479 11.599927 14
-43.792873 4.2798285 11.429189 13.363636
-43.767559 4.6306014 11.43321 13.555555
-43.797947 5.047524 11.388595 13.5
-43.930405 5.2937808 11.46946 13.4
-43.870678 55.516514 11.226881 11
-43.762791 55.801479 11.306265 11.026
-43.742382 56.0891 11.391453 11.006571
-43.828861 4.236053 11.755408 13.538462
-43.784031 4.574955 11.763907 13.727273
-43.842758 4.9868464 11.788717 13.714286
-43.861458 5.2215333 11.86216 14
-43.843166 55.429825 11.936732 11
-43.735283 55.615276 11.973643 11.077
-43.814644 3.907383 12.11422 14
-43.689758 4.1462955 12.234431 14
-43.715984 4.6882586 12.203247 14
-43.895977 4.9814038 12.216567 14
-43.791267 4.1957841 12.632099 14
-43.862926 4.5387497 12.706824 14
-43.890797 4.9011998 12.432039 14
-43.757462 4.2766995 13.009093 14
-43.83638 4.6180854 13.009626 14
-43.853722 4.9425468 13.034071 14
-43.944862 54.485859 12.87902 12
-43.772598 54.806072 12.89462 12
-43.790615 55.450378 13.048579 12
-43.716202 55.71981 13.09087 12
-43.625904 -27.53372 13.437072 14.102
-43.888622 4.2706218 13.376328 14
-43.885242 4.5564399 13.401457 14
-43.769917 4.8288436 13.486719 14
-43.791534 55.462212 13.384011 12
-43.636585 55.768814 13.42689 12
-43.908722 4.3003111 13.844577 14
-43.64703 4.581111 13.841996 14
-43.832077 5.0042644 13.813515 14
-43.962563 5.2959685 13.849651 14
-43.877411 55.541237 13.616703 12
-43.733288 55.762897 13.854406 12.0099
-43.860348 4.3288226 14.082559 14
-43.863064 4.5536618 14.046846 14
-43.844051 55.418869 14.295878 12
-43.765156 55.743183 14.044129 12
-43.762623 55.54847 14.68267 12.717999
-43.781628 55.675194 14.479685 12.1535
-43.782845 54.652088 14.94146 13
-43.890221 55.067825 15.034165 13
-43.764343 55.407452 14.955946 13
-43.803062 55.844082 15.117987 13
-43.746628 56.015217 15.108326 13
-43.904251 55.16021 15.492311 13
-43.69997 55.362293 15.330675 13
-43.786457 55.358559 15.818981 13
-43.784382 55.36816 16.119631 13.021429
-43.853111 55.144772 16.721245 13.642858
-43.701607 55.286377 16.737913 13.769231
-43.995491 54.383736 17.032413 14
-43.801208 54.595852 17.039631 14
-43.921478 55.133514 16.886112 14.002125
-43.719784 55.28886 16.919767 14.00672
-43.842903 54.95483 17.437603 14
-43.885681 54.880795 17.627272 14
-43.712063 54.937557 18.251326 14
-43.423313 4.4645705 -4.064992 7
-43.518017 5.3247566 -4.053669 7
-43.516766 4.3261132 -3.8221395 7
-43.450375 4.4122558 -3.943059 7
-43.411346 5.0638227 -3.8464506 7
-43.495213 5.2618003 -3.9302773 7
-43.568363 23.838564 -3.9425914 5
-43.401146 4.3208323 -3.2990961 7
-43.212597 4.4442892 -3.2652812 7
-43.332676 4.9495015 -3.2610812 7
-43.534718 5.2660489 -3.2629697 7
-43.363026 26.052563 -3.382437 4
-43.396416 4.3031788 -3.0348215 7
-43.298492 4.4774709 -2.8712118 7
-43.313183 5.0181074 -3.0025902 7
-43.568897 5.2455244 -3.0975659 7
-43.233257 5.8829021 -3.1032915 7
-43.405872 6.1762629 -3.0957916 7
-43.257057 23.560997 -3.1893616 6
-43.430195 25.040947 -2.9935882 6
-43.472641 25.285547 -3.0548656 6
-43.424187 26.048334 -3.0100768 4
-43.286404 -13.418895 -2.7062244 8
-43.480255 -13.088634 -2.7224102 8
-43.436543 4.5085788 -2.6087043 7
-43.48645 25.817778 -2.7351105 4
-43.377121 4.6529341 -2.1845162 7.5
-43.36277 4.9888797 -2.1386819 7.5
-43.458382 5.3170948 -2.1889944 7
-43.559986 5.806108 -2.1856833 6
-43.361168 -12.986737 -1.7544886 5
-43.530159 -12.7199 -1.7789843 5
-43.317215 -7.854908 -1.6527376 5
-43.562675 4.3429952 -1.6698743 8
-43.393242 4.554635 -1.8172146 8
-43.392258 5.033452 -1.8468202 7.5384617
-43.416767 5.3169684 -1.8800561 7.75
-43.457054 5.6433339 -1.7556903 7.6666665
-43.384312 -9.665246 -1.5979309 5
-43.585453 -4.7179317 -1.2223014 5
-43.30653 -0.26678112 -1.3348393 5.6666665
-43.512829 4.3161626 -1.346719 8
-43.342991 4.6161222 -1.3778609 7.6666665
-43.404911 5.0249176 -1.4134299 7.3201876
-43.439655 5.3308268 -1.3884165 7.0588236
-43.375584 5.7484884 -1.3426833 7.8435001
-43.51479 6.0631466 -1.276041 8
-43.45372 25.392275 -1.4874271 7
-43.338585 -13.709711 -0.86614788 7
-43.378307 -13.345024 -0.96359378 6.1999998
-43.519676 -13.041849 -0.96554434 6
-43.240868 -12.710125 -1.1379964 6
-43.362518 -2.2256112 -1.1411598 5
-43.389851 -0.2573224 -1.0585341 5.3333335
-43.518353 4.3011308 -0.98539734 8
-43.271427 4.483211 -0.99114096 8
-43.347054 4.9975433 -0.90589041 7.1666665
-43.377949 5.3964314 -0.90729332 6.9230771
-43.474499 5.7785349 -0.93248326 7.25
-43.250946 91.582184 -0.95399797 7
-43.229588 -13.644246 -0.59365034 9
-43.453976 -13.422649 -0.58605373 7.8000002
-43.373947 -0.67657983 -0.409439 6
-43.391052 0.70059127 -0.40762514 6
-43.450089 4.5931139 -0.61008233 6.9000001
-43.343502 5.0234075 -0.5905416 7.25
-43.371975 5.3940649 -0.62397003 6.967742
-43.485092 5.7040048 -0.64933681 7.1999998
-43.461819 6.1233292 -0.71784413 5
-43.333179 -13.383722 -0.10043183 7.2325001
-43.492722 -13.142439 -0.096541435 7
-43.534813 -0.36424267 -0.3926394 6
-43.560352 3.052681 -0.29880896 7
-43.291954 3.2555575 -0.39471725 7
-43.5634 4.3835878 -0.20935836 8
-43.388699 4.6363087 -0.13429105 7.1999998
-43.38419 5.0125699 -0.18017237 7.3636365
-43.348045 5.3786306 -0.21156342 6.90625
-43.442181 5.7332778 -0.19616483 6.5
-43.392639 6.1718373 -0.087248825 6
-43.55508 6.4710274 -0.053834885 6
-43.387016 -13.755971 0.26949272 8.0320005
-43.398136 -13.462076 0.13104922 7.5
-43.562897 -12.867705 0.01576991 7
-43.402287 3.3440118 0.23513433 7.5412502
-43.445534 4.6647902 0.0019452607 8
-43.334888 5.0359759 0.20804702 7.4583335
-43.40596 5.4199495 0.20340364 7.2666669
-43.538235 5.647347 0.17921519 7.5
-43.26384 36.950653 0.23625484 7
-43.560253 37.86692 0.34413019 7
-43.360973 38.159542 0.12830226 7
-43.225597 -14.116921 0.52938455 8
-43.33511 -13.787345 0.51785517 8
-43.487869 -13.387725 0.60793793 8
-43.453297 4.688879 0.67200571 7.2142859
-43.335239 4.9968052 0.61882532 7.5769229
-43.400715 5.3799787 0.64507371 7.5
-43.446175 5.7315264 0.62477541 7.1111112
-43.389236 6.1317916 0.67577475 7
-43.561943 6.4741697 0.66009712 7
-43.485149 36.891747 0.53109318 7
-43.509712 37.306015 0.48425207 7
-43.557812 38.131824 0.49098086 7
-43.528179 44.547112 0.61675745 6.5
-43.32272 -14.003922 0.89828002 8
-43.432529 -13.790855 0.91463596 8.0747004
-43.447208 -13.444992 0.90669173 8.4100628
-43.47382 -13.079604 0.85489428 8
-43.423878 3.2678788 0.92583221 8.0819998
-43.527004 4.7665749 0.96555406 8
-43.34269 5.0645709 1.0553031 8.25
-43.429928 5.4131441 1.0501859 8.2068968
-43.564861 5.6871915 1.0573535 8.1428576
-43.283379 23.461782 1.0173708 7
-43.244808 34.060009 1.0035135 7
-43.524967 44.593391 0.87519312 7
-43.369095 -13.678666 1.4482855 9
-43.472008 -13.415405 1.5180711 9
-43.45126 4.6769457 1.4377565 8.3125
-43.300999 5.0027609 1.3723029 8.3513517
-43.410812 5.4035625 1.3658788 8.333333
-43.463783 5.7575994 1.3476142 8.0625
-43.396133 6.2581978 1.3427978 8
-43.578007 6.6015429 1.3739225 8
-43.35498 57.471256 1.4705255 8
-43.598869 82.807571 1.4192302 8.1575003
-43.392822 87.850655 1.2990235 8.1615
-43.279823 -14.138907 1.6989762 9
-43.4734 -13.801168 1.7147194 9.0103502
-43.33485 -13.391564 1.8684887 9
-43.5313 -13.106091 1.8521202 9
-43.295364 -11.434361 1.9156505 9.0068331
-43.461826 -11.000639 1.8766367 9
-43.478592 4.7379928 1.8407365 9
-43.351326 5.0115457 1.8655279 9
-43.499584 5.3877244 1.8133465 9
-43.537647 5.6671295 1.95557 9
-43.420921 37.925392 1.6019177 8.0769997
-43.423653 57.430271 1.6408284 8
-43.363522 82.864853 1.9761008 8.1505003
-43.27338 4.3199401 2.2995424 9
-43.457195 4.6671753 2.2513885 9
-43.305649 4.9980555 2.2454648 9
-43.423397 5.4102907 2.2413228 9
-43.469753 5.7403088 2.2118104 9
-43.372208 6.2546482 2.0665963 9
-43.569195 6.6291547 2.1077015 9
-43.2565 83.086662 2.0826063 8.1499996
-43.295238 -14.059929 2.5802832 10
-43.570164 -13.672588 2.5525331 10
-43.383266 -13.30651 2.7717063 10
-43.54612 -13.050374 2.7908173 10
-43.452854 4.6268654 2.5445285 9
-43.388931 4.9875197 2.507458 9.0043926
-43.399689 5.3719707 2.5276661 9
-43.542732 5.6490273 2.545855 9
-43.251553 57.462303 2.4459612 7
-43.594769 91.38279 2.6625824 8.1475
-43.549587 4.3694396 3.11483 9
-43.415741 4.5781898 3.1128681 9
-43.522427 4.8982234 3.1613476 9
-43.273224 56.327118 2.905416 9
-43.562759 91.42067 2.84623 8.1479998
-43.31834 -13.706259 3.5549221 10.012285
-43.387783 -13.385275 3.5579512 10.007417
-43.499428 -13.103193 3.5705352 10
-43.577023 4.3676052 3.2563729 9
-43.397881 4.6292558 3.3201196 9.3125
-43.374783 4.9822392 3.4342427 9.6785717
-43.42979 5.3956709 3.5524096 10
-43.359035 5.8035669 3.5252664 10
-43.328201 6.246984 3.5128624 10
-43.551727 6.6149044 3.5667341 10
-43.390766 -19.378717 3.8187211 10.0955
-43.258255 -13.748854 3.6820197 10
-43.46685 -13.434973 3.6959465 10
-43.436344 4.6606593 3.8147786 10
-43.274193 5.0145631 3.8457212 10
-43.474682 5.3742361 3.852354 10
-43.552799 5.6456976 3.7223849 10
-43.582722 6.1303549 3.6228914 10
-43.29364 91.685143 3.6943741 7
-43.359814 4.2231817 4.1174579 10
-43.418449 4.6967344 4.2152319 10.310345
-43.303173 5.0250058 4.2176418 10.28
-43.449814 5.3651319 4.1980581 10.215686
-43.427097 5.7225485 4.2281961 10.8
-43.361652 6.192781 4.2560353 11
-43.497303 6.5611339 4.2826385 11
-43.255943 57.355198 4.2037239 8
-43.467812 91.317917 4.3322248 7
-43.317364 -13.806825 4.5341487 11
-43.375393 -13.378304 4.5351772 11
-43.548702 -13.083345 4.5277514 11
-43.403896 4.6494436 4.6523914 10.377778
-43.328053 4.9870625 4.5949569 10.32
-43.494102 5.3960748 4.5728197 10.51282
-43.563301 5.6809831 4.4537692 11
-43.573174 4.3616457 5.0423594 10
-43.445297 4.6161127 5.0206771 10.539682
-43.325066 5.0139484 4.9894896 10.857142
-43.471199 5.365231 5.0135417 11.102564
-43.375439 5.7536793 4.9927964 12
-43.335564 6.178544 5.0075521 12
-43.484798 6.5813236 5.0439138 12
-43.229568 -14.001861 5.5691237 12
-43.224506 -13.839423 5.518548 12
-43.40266 -13.351991 5.4636407 12
-43.524426 -13.041365 5.4338527 12
-43.405727 4.6262784 5.4059348 11.409091
-43.297699 5.0126371 5.4055901 11.259259
-43.467392 5.3579187 5.3729086 11.433333
-43.569336 5.7292476 5.2784324 12
-43.394096 -13.448528 5.7912555 12.0445
-43.54377 -13.044254 5.679287 12
-43.316135 4.3031082 5.9181948 11
-43.42244 4.6166196 5.848618 11.8
-43.315544 5.0173397 5.8166122 11.615385
-43.48402 5.3621631 5.8092551 11.947369
-43.367439 5.7719131 5.7481217 13
-43.264683 6.2564235 5.723845 13
-43.487572 6.6079679 5.7974601 13
-43.599377 56.346565 5.8679028 9
-43.328838 56.460506 5.8649802 9
-43.204315 57.295101 5.9745603 9
-43.37022 91.612839 5.7710538 8.0930004
-43.334965 -13.461134 6.3409448 13
-43.560532 4.3148298 6.3581696 11
-43.419109 4.6201053 6.203279 11.672728
-43.342381 5.0232887 6.217195 11.545455
-43.496708 5.3651824 6.1727452 12.03125
-43.534996 5.7412291 6.1356897 13
-43.474525 56.216282 6.2938905 9.0222149
-43.208153 56.40556 6.3947434 9
-43.200623 57.287933 6.0077057 9
-43.489037 82.622757 6.2720356 8.3920002
-43.217014 -13.720819 6.5576291 13
-43.469124 -13.428015 6.5812707 12.910137
-43.569588 -13.012851 6.7163153 13
-43.565105 4.3606625 6.6276455 11.6
-43.439117 4.5914645 6.600585 12.274509
-43.341431 5.0158181 6.5743642 12.195122
-43.483494 5.3456016 6.6275659 13.033334
-43.416733 5.7548161 6.5193343 14
-43.361298 6.2012377 6.5185299 14
-43.495045 6.6281605 6.5658159 14
-43.386471 56.137779 6.4264932 9
-43.258633 -13.757766 7.0196452 13.0125
-43.536102 -13.365202 7.0248628 13
-43.582035 4.3905573 7.0449243 12
-43.443569 4.5768647 6.9758697 12.266666
-43.320526 4.9962673 6.985992 12.454545
-43.477413 5.3530164 6.9859076 13.047619
-43.542542 5.7250295 6.9514127 14
-43.307159 91.238319 6.8825297 8.0439997
-43.32711 -13.436395 7.3691864 14.0134
-43.512741 -13.05308 7.3267117 14
-43.518818 4.3809586 7.4516582 13
-43.366539 4.5859671 7.3973455 12.857142
-43.343391 5.0120754 7.4067054 12.787879
-43.520161 5.3281493 7.3802752 13.235294
-43.418499 55.857258 7.2403178 9
-43.342743 -13.635773 7.6013288 14
-43.371651 -13.428328 7.6813202 14
-43.409389 -13.158977 7.7554579 14
-43.304512 3.8973651 7.804872 12
-43.429146 4.2694831 7.7961359 12.2
-43.383629 4.5974865 7.8211164 12.690476
-43.375202 4.9985204 7.8110614 12.875
-43.517048 5.3116822 7.7899899 13.333333
-43.355656 55.971931 7.7893205 9
-43.417938 56.065228 7.8035002 9
-43.213203 57.173912 7.8911185 9
-43.548016 4.3498979 8.1886339 13
-43.381691 4.5591311 8.2161951 12.666667
-43.405243 4.9791832 8.1864376 12.805555
-43.55621 5.3218298 8.1621056 13.5
-43.430183 56.081299 8.3829927 10
-43.532711 4.3786011 8.5931387 13.111111
-43.348587 4.6331029 8.5924435 12.941176
-43.398922 4.9888287 8.6106672 13.230769
-43.54451 5.2558427 8.6084709 13.5
-43.50478 55.906525 8.722436 10
-43.309395 56.15163 8.6840439 10
-43.319965 56.570904 8.7071009 10
-43.405373 56.882713 8.477293 10.1415
-43.524086 4.3590312 9.1278019 13.166667
-43.368088 4.6126823 9.031558 12.967742
-43.443878 4.9758635 8.9942245 13.205999
-43.575272 5.3437843 8.8145409 14
-43.436932 55.858967 9.0649805 10.008038
-43.36816 56.166687 8.9266682 10
-43.211292 3.9049621 9.4615593 13
-43.459381 4.3096004 9.462059 13.5
-43.414833 4.5885458 9.3907251 13.142858
-43.445011 4.9668694 9.3852549 13.476191
-43.574036 5.2456517 9.388236 13.666667
-43.420795 55.885742 9.3846159 10.00387
-43.336388 56.156307 9.4701557 10.007
-43.552856 87.17662 9.2789936 9.0434999
-43.401054 3.8556471 9.6862898 13
-43.490498 4.2616816 9.7543173 13.272727
-43.359894 4.5859041 9.8305187 13.470589
-43.457951 4.9475803 9.8306408 13.727273
-43.58519 5.2005062 9.9146414 14
-43.501652 55.593811 9.6519318 10
-43.426529 55.748257 9.6543179 10.016778
-43.374176 56.367931 9.645215 10.0445
-43.521458 4.3152866 10.176011 13.142858
-43.396931 4.5697846 10.190938 13.32
-43.510136 4.9294357 10.228737 13.777778
-43.509842 4.3138199 10.594183 13.857142
-43.422997 4.6203551 10.647631 13.866667
-43.539734 4.9034953 10.576118 14
-43.459991 4.3420877 11.02093 14
-43.432079 4.6211748 11.009972 13.571428
-43.53479 4.8815775 10.987908 13.75
-43.511658 55.262493 10.828833 11
-43.459385 55.854984 11.04919 11
-43.323025 56.081188 11.069851 11.013267
-43.543636 56.494003 11.195274 11.0535
-43.216251 3.5219073 11.511022 14
-43.35183 3.7924254 11.488102 14
-43.409542 4.221467 11.416786 14
-43.499786 4.5974784 11.389534 13.4
-43.57003 4.8539867 11.39913 13.5
-43.440594 55.889786 11.272324 11
-43.376373 56.219837 11.335502 11.007999
-43.411659 56.488647 11.389252 11.007071
-43.434414 56.812481 11.410145 11.1415
-43.554245 3.8940372 11.63743 14
-43.409481 4.2399487 11.832609 14
-43.468086 4.6036725 11.85901 14
-43.552429 4.8772449 11.797667 14
-43.542656 55.588085 11.868243 11.151
-43.34938 55.711117 11.844709 11.07675
-43.248558 -25.736879 12.08144 14.0965
-43.402348 4.2881069 12.17372 14
-43.549244 4.4800167 12.140148 14
-43.539345 55.967205 12.016395 11
-43.297413 56.019238 12.0033 11
-43.431381 4.3984027 13.024808 14
-43.518139 4.6307278 13.05345 14
-43.510723 55.551987 13.147307 12
-43.413433 55.757088 13.074744 12.001863
-43.378689 56.056953 13.150542 12
-43.547409 4.5423155 13.338961 14
-43.568542 55.564682 13.391096 12
-43.393284 55.789322 13.436721 12
-43.447781 56.121513 13.26942 12.014999
-43.501171 4.6055779 13.742105 14
-43.501163 55.939213 13.806682 12
-43.283497 56.079609 13.83926 12
-43.455849 55.575691 14.351082 12
-43.464691 55.874863 14.096886 12.063499
-43.361843 56.132416 14.087467 12.039599
-43.368786 55.813938 14.410997 12
-43.328049 56.011253 14.512817 12
-43.464722 54.899052 14.937173 13
-43.466873 55.49577 14.963009 13.00491
-43.35574 55.743649 14.965649 13
-43.353489 56.189472 15.074161 13
-43.46769 55.469242 15.372397 13.016999
-43.325123 55.689674 15.327429 13
-43.397846 55.586437 15.736361 13
-43.380463 55.728275 15.839055 13.027416
-43.468395 55.384735 16.11618 13.148
-43.346138 55.694878 16.088348 13
-43.425346 55.450737 16.731493 13.612974
-43.246765 55.623196 16.744583 13.75
-43.415844 54.744453 16.990965 14.04775
-43.450855 55.473949 16.915222 14.00142
-43.265083 55.645859 16.967085 14
-43.540451 55.123314 17.562479 14
-43.365231 55.316013 17.403286 14
-43.59581 55.114906 17.631979 14
-43.315849 55.293781 17.616865 14
-43.359451 55.120041 18.247953 14
-43.115261 4.8518095 -5.4149537 6
-43.018032 4.6051698 -4.5621195 6
-43.145496 5.1523013 -4.5617146 6
-43.15662 4.7630744 -4.0463319 7
-43.148327 5.036315 -4.2086916 6
-43.172314 4.7391472 -3.7997966 7
-43.120754 4.8072481 -3.9207416 7
-43.146168 24.688316 -3.8298116 5
-43.101826 4.6324615 -3.2581975 7
-43.051582 5.5633821 -3.2093155 7
-42.85323 -14.07841 -2.8005095 8
-43.150581 -0.39868155 -3.0047557 6
-43.118935 4.612514 -2.9811208 7
-43.142185 4.837482 -2.8599141 7
-42.856529 -14.028033 -2.5988312 8.06775
-42.981361 -13.82243 -2.7373493 8.0137501
-43.09082 -13.494184 -2.5883603 8.0345001
-43.147556 4.7398067 -2.4789174 7
-43.068802 -13.824285 -2.2336111 8.092
-42.952766 4.9350743 -2.1696894 6
-43.078835 -13.093253 -1.800885 5
-42.900604 -9.1883307 -1.7079315 5
-42.961803 -8.6960373 -1.682649 5
-43.189186 -8.3330488 -1.6727871 5
-43.174835 4.6451182 -1.8750211 8
-43.120174 5.0476704 -1.8234699 7.6666665
-43.151909 -0.16675428 -1.4123372 5.5
-42.860794 4.1742601 -1.4614427 8
-42.961727 4.6618834 -1.4136058 6.75
-43.038834 5.0777135 -1.3226147 6.25
-43.157101 5.4340377 -1.3576192 7.8000002
-42.872555 -14.184558 -0.94651318 6.6666665
-42.989643 -13.751967 -0.97919601 6.1666665
-43.099178 -13.442433 -0.93918604 6
-42.90794 -2.6129749 -1.101794 5
-43.135933 -0.17460446 -1.0627664 6
-42.970863 0.090642191 -1.1558466 5.5
-43.195351 3.4551806 -1.0482073 7
-43.077579 4.6851273 -0.99060392 7.1111112
-43.171562 4.9355397 -0.84271479 5.5
-43.149216 5.2962451 -0.98318744 5.5
-42.804668 -14.41653 -0.66540122 7
-42.925751 -14.20483 -0.64352494 7.6666665
-43.171783 -13.727259 -0.72120297 7
-43.187607 -1.0559155 -0.43028328 6
-42.938034 -0.15314619 -0.45396608 6
-42.862396 0.047910664 -0.71807611 7
-43.016586 4.6595254 -0.68202192 6.4285712
-43.114243 4.9699531 -0.62477332 5.7777777
-43.098457 5.2882299 -0.56976628 6
-42.882912 -14.082073 -0.14003508 7
-43.031471 -13.835395 -0.17024456 7.2138
-43.17569 -13.452412 -0.039046749 7
-42.911495 1.2416272 -0.37116793 6
-42.807434 2.1806011 -0.24705783 6
-43.114292 3.1868839 -0.12796099 6
-42.977779 3.5638857 -0.073333248 8.0834999
-42.896511 4.2941709 -0.38025376 6
-43.070789 4.6281757 -0.31233752 6.6666665
-43.161201 4.9900036 -0.048041087 6.1111112
-43.120197 5.298274 -0.18598972 6.1999998
-42.93206 -14.23694 0.31977662 8.0314445
-43.145733 -13.919394 0.35637718 8
-43.137661 -13.488523 0.024821842 7
-43.049343 3.3591692 0.34078825 8.0825005
-43.159416 5.0911679 0.050530668 6.5
-42.948494 37.31179 0.28492785 7
-43.057743 38.154869 0.24608494 7
-43.157013 44.702763 0.3669605 6
-42.813057 -14.925069 0.61855543 9.0939999
-42.94865 -14.548344 0.54072428 8
-42.977219 -14.17824 0.55691272 8.18225
-43.028839 -13.824929 0.70386231 8
-43.1105 -13.577521 0.78050917 8
-42.910778 3.5114441 0.53386307 8.0819998
-42.813969 3.8429055 0.63894773 7
-43.164959 4.789185 0.68465436 7
-43.163204 4.9859824 0.68634933 7
-43.166447 5.3155146 0.49901652 7
-42.882538 -14.464279 0.82735372 8.0319996
-43.107468 -14.155658 0.87294549 8.1303339
-43.06675 -13.750316 0.8525278 8.0100002
-43.117504 -13.573509 0.83777499 8
-43.145184 5.0977321 1.0251836 8
-43.084229 44.928886 0.89844066 7
-42.84977 -14.829601 1.5842264 9
-42.919437 -14.566022 1.4257405 9
-42.933331 -14.076201 1.5428964 9
-43.120415 -13.786183 1.51156 9.0136433
-43.116142 -13.572158 1.4552253 9
-43.173752 4.7813668 1.4087549 8
-43.172871 5.0241799 1.3813941 8.2352943
-43.151272 5.3816805 1.3845755 8
-43.061886 57.547073 1.3696032 8
-42.995171 57.694046 1.4523633 8
-43.0495 88.275696 1.2394845 8.1630001
-42.801743 -14.89672 1.6615609 9
-42.935314 -14.571372 1.6809533 9
-42.983189 -14.208818 1.7059211 9
-43.002705 -13.862998 1.8332865 9
-42.922852 -12.111818 1.8727766 9.0109997
-42.967419 -11.815798 1.8542135 9.0026245
-43.16658 -11.430641 1.8483744 9
-42.965206 57.764954 1.6404711 8
-43.088524 -14.14292 2.2858503 10.0935
-42.83255 3.2730875 2.2139215 9
-42.903229 3.8370209 2.2549343 9
-43.019146 4.2341671 2.2829564 9
-43.16209 4.6610427 2.2340941 9
-43.154072 5.000948 2.227375 9
-43.135025 5.327424 2.1571994 9
-43.056084 57.525394 2.3725402 7
-42.864708 -14.985053 2.5153089 10.04375
-42.980492 -14.095091 2.6870756 10
-43.035847 -13.795371 2.7612267 10
-43.054241 4.2603884 2.418117 9
-43.124897 4.495461 2.4343071 9
-43.182308 5.1136284 2.5237 9
-43.152504 57.504837 2.4422872 7
-42.879707 57.666603 2.4455366 7
-42.844063 60.913914 2.5879419 7
-42.847214 -14.231564 2.8806427 10
-42.981598 56.48465 2.9393146 9
-42.854527 -14.553836 3.520426 10
-43.01001 -14.13577 3.5376244 10.012964
-43.047977 -13.847926 3.5342116 10
-43.177391 4.9550691 3.4750798 10
-43.122272 5.4138837 3.5128345 10
-43.179966 5.8686395 3.4749284 10
-42.807632 -14.417296 3.6533465 10
-42.959793 -14.173365 3.666975 10
-43.168571 -13.861072 3.6730351 10
-43.161652 4.9271846 3.8243818 10
-43.040764 57.533428 3.9467723 8
-42.950813 3.8189602 4.0677543 10
-42.995361 4.216011 4.0850215 10
-43.156994 4.5165429 4.1653981 10.25
-43.168522 4.9651847 4.2591834 10.529411
-43.088371 5.3569846 4.206902 11
-43.15757 5.8796177 4.1826091 11
-43.071545 57.46698 4.1838627 8
-42.878422 57.650982 4.2045031 8
-42.989662 91.501678 4.2606077 7
-42.915432 91.658058 4.3320589 7
-42.804008 -14.624591 4.5054412 11
-42.946198 -14.146793 4.4965935 11
-43.064465 -13.807229 4.4918971 11
-43.159302 -13.505843 4.4477096 11
-43.148369 4.8791027 4.6186547 10.5
-42.932152 -14.490793 4.9290562 11.04725
-43.176136 4.7497721 5.0529656 12
-43.163933 4.9250264 5.0490608 11.5
-43.090321 5.3337364 4.944325 12
-43.144409 5.8700614 4.9317579 12
-42.837757 -14.532083 5.5461311 12
-42.946049 -14.232762 5.4582181 11.858928
-42.974339 -13.885709 5.3976011 12
-43.131691 -13.535753 5.3843846 12
-43.167408 4.7822318 5.4402914 11.333333
-43.159523 4.8940158 5.336165 11.625
-42.812733 -14.524738 5.9117661 12
-42.898632 -13.961566 5.6417279 12.0895
-43.175446 -13.49507 5.6430116 12.089
-43.027534 3.4427896 5.8749661 11.035
-42.961426 3.8394806 5.8674035 11
-43.038574 4.1780787 5.8621049 11
-43.148045 4.7237115 5.8270841 11.888889
-43.154999 4.9381199 5.8425698 12.48
-43.107559 5.4005356 5.6789804 13
-43.129417 5.8485231 5.6696415 13
-43.150536 6.0130138 5.6961732 13
-43.031078 56.078064 5.8648067 9.1759996
-43.059582 56.825832 5.9638634 9.1674995
-43.198231 91.707344 5.8804936 8.0909996
-42.835224 -14.447122 6.135231 12.048
-42.834072 -14.129235 6.2940726 13
-43.062069 -13.978648 6.3932366 13
-43.173779 -13.558594 6.3197694 13
-43.140297 4.7694564 6.2018447 12.5
-43.148319 4.9200115 6.2136703 12.857142
-43.10458 5.2306452 6.2443528 13.5
-43.088013 5.7794795 6.3875237 14
-43.006794 56.524593 6.333406 9.0391254
-43.182236 57.299541 6.0262322 9
-42.830181 -14.493218 6.5275455 13
-43.013508 -14.149748 6.5161529 12.924
-43.110245 -13.891964 6.5198903 13
-43.135193 4.752337 6.5959463 12.857142
-43.151592 4.9099736 6.6730089 13.466666
-43.153168 5.4919119 6.4380236 14
-43.145096 5.8137574 6.4253139 14
-43.121571 6.026557 6.4339533 14
-43.160336 56.263943 6.4655209 9
-42.951389 56.451782 6.4288788 9
-43.033451 91.411583 6.7871041 8.0570002
-42.937008 -14.23348 6.9806671 13.013
-43.144493 4.7375102 7.020102 12.615385
-43.150143 4.892314 6.9616776 13.4
-43.178951 5.2265782 6.9673743 14
-42.95261 91.385612 6.9021087 8.0447493
-42.852367 -14.469593 7.5733395 14
-42.952114 -14.160316 7.4473157 14.01
-43.014805 -13.828928 7.3147058 14.007501
-43.19455 -13.441091 7.2528572 14
-43.133625 4.7343025 7.3404493 13
-43.171539 4.8189745 7.3561888 13.285714
-43.019329 56.133335 7.2574887 9
-43.187496 82.582176 7.2795696 9.1450005
-42.834404 87.617439 7.2347841 9.1499996
-43.107342 -13.692934 7.7550392 14
-43.165279 -13.551971 7.7499485 14
-43.033211 3.1942875 7.7430406 12.105
-42.927498 3.5650396 7.7674913 12
-43.017883 3.8411582 7.7374086 12
-43.094608 4.1543007 7.7095718 12
-43.131744 4.7084045 7.8122754 13.454545
-43.160618 4.8139715 7.7662849 14
-43.023064 56.241398 7.7964687 9
-42.904575 56.413162 7.8100333 9
-43.17815 57.132633 7.8428607 9
-42.978504 57.351204 7.8462863 9
-43.147686 4.6982107 8.2527714 13.5
-43.161938 4.8213654 8.2629662 14
-43.15057 4.6760445 8.6105375 13.555555
-43.197388 4.8174243 8.6560707 14
-43.074184 56.250229 8.7247887 10
-42.967964 56.514072 8.5625296 10.014143
-42.983902 56.80479 8.7077703 10
-43.1702 4.6804867 8.9723663 14
-43.189709 55.981133 9.1425629 10
-43.026413 56.201683 9.0328131 10
-42.995129 56.523582 8.8808632 10
-42.853058 -25.34584 9.2901344 13.098
-42.988369 3.1057389 9.5750494 13.105
-42.944221 3.4391432 9.5907383 13
-43.009518 3.7716467 9.4975319 13
-43.125973 4.1293025 9.5076065 13
-43.166897 4.6522989 9.3558445 14
-43.169643 55.935196 9.2550764 10.026
-42.993797 56.208038 9.3891296 10.010174
-42.961727 56.601971 9.5601311 10
-42.943363 3.4418917 9.6347799 13
-43.038513 3.7037003 9.6475496 13
-43.187325 4.6449938 9.7458668 14
-43.087898 55.8703 9.6608696 10
-42.945042 56.168499 9.7021389 10.0302
-42.978409 56.515865 9.7178659 10.09575
-42.923893 -25.379253 10.412758 14.0995
-43.098213 55.384899 10.82749 11
-43.128345 55.854115 10.998331 11
-43.02335 56.198265 11.056403 11.007971
-42.868626 56.492512 11.070618 11
-42.825157 3.1001127 11.444274 14.035
-42.993454 3.4417424 11.461243 14
-43.009678 3.7597661 11.344513 14
-43.039597 56.232422 11.302495 11
-43.004364 56.604736 11.389672 11.023601
-42.887558 56.886063 11.463908 11
-43.029587 87.618958 11.251042 9.0904999
-43.18708 4.3742557 11.723418 14
-43.141632 55.901562 11.909633 11.099667
-42.919727 56.087509 11.955179 11
-42.969162 56.324394 12.020371 11
-43.020397 55.130264 12.868228 12
-42.940109 55.40131 12.897345 12
-43.107185 55.908821 13.085857 12.00375
-42.920517 56.130314 13.101188 12
-43.064888 55.945873 13.325504 12
-42.994308 56.08955 13.465864 12
-43.030209 56.247612 13.780194 12.011111
-42.882683 56.401917 13.875886 12
-42.996532 55.873264 14.356325 12
-42.952175 56.341507 14.02456 12
-43.006012 56.510674 14.218982 12.0985
-43.040726 56.057693 14.644128 12.5
-43.002552 55.170486 14.915999 13
-42.916775 55.439888 14.95407 13
-43.055893 55.881409 14.97514 13
-42.904778 56.062237 14.999448 13
-43.059872 56.550945 15.12078 13
-43.022545 55.771633 15.33033 13
-42.937454 56.693192 15.368294 13
-42.972694 55.902233 15.784797 13.014358
-42.910954 56.020222 15.945212 13
-43.031029 55.900726 16.074953 13
-43.166283 55.576172 16.71969 13
-42.990433 55.785618 16.746014 13.652174
-43.173248 55.565693 16.810083 14
-43.017921 55.79174 16.93434 14.002069
-42.828915 56.048466 16.921001 14.026
-43.089436 55.478874 17.477703 14
-42.877304 55.735413 17.341616 14
-42.965115 55.544678 17.604115 14
-43.103779 55.265842 18.249424 14
-42.57859 4.7830443 -3.4224474 7
-42.407188 27.749798 -3.5104895 5
-42.435677 -14.529664 -2.824162 8
-42.608421 -14.265568 -2.8104079 8
-42.425533 4.4825358 -3.1903977 7
-42.63208 -14.209504 -2.6349475 8
-42.673264 -13.978311 -2.7631478 8
-42.549397 30.330214 -2.4007413 6
-42.603786 -14.507235 -2.2456138 8.0924997
-42.444046 4.2095041 -2.1567903 6
-42.780609 -13.71707 -1.7917428 5
-42.786724 -13.23176 -1.7550375 5
-42.502693 4.307303 -1.7364647 7
-42.642982 4.5119085 -1.9204832 7
-42.41888 -5.3505292 -1.2050246 5
-42.630974 -5.0893197 -1.236665 5
-42.510647 0.29803532 -1.278296 6
-42.424999 3.3848004 -1.5080208 8
-42.556633 3.8128762 -1.4890343 8
-42.673111 4.1148987 -1.4483781 6
-42.708076 4.5776334 -1.2506281 6
-42.518978 -14.576777 -0.99572212 7.0313334
-42.575748 -14.212267 -1.03166 6
-42.742794 -13.982268 -0.92164296 6
-42.691895 0.22107959 -0.80406255 7
-42.573975 0.46770921 -1.1054971 5
-42.552238 4.2206678 -0.87322879 6
-42.739159 4.629137 -1.0554252 6
-42.512238 -14.518587 -0.65319711 9
-42.72723 -14.161777 -0.6332615 9
-42.748871 -1.7091004 -0.4663403 6
-42.561481 0.69297415 -0.66052032 6
-42.564495 1.8926629 -0.68162495 6
-42.533775 3.830843 -0.52654922 6.5
-42.603813 4.2204561 -0.60883546 6
-42.669601 4.454843 -0.57671124 6
-42.481506 -15.291222 -0.39592931 9.0935001
-42.471813 -14.497854 -0.15841176 7
-42.711594 -14.186312 -0.13368858 7.2372775
-42.578728 1.4882723 -0.28163573 6
-42.676018 1.8035519 -0.26566789 6
-42.580105 3.5552025 -0.1099792 6
-42.61031 3.8917677 -0.25911468 6.5
-42.665592 4.0400605 -0.32086408 6
-42.484619 -14.899501 0.25308973 8.0939999
-42.667686 -14.619336 0.28401205 8.0467501
-42.749454 37.297398 0.18628721 7
-42.568058 45.101624 0.38566771 6
-42.487118 -15.266493 0.49387902 8.0440006
-42.686832 -15.005694 0.53578407 8.3646669
-42.682667 -14.732282 0.45204538 8.0889997
-42.687916 -14.268815 0.74201763 8
-42.661453 3.7468936 0.47530183 8.0819998
-42.761646 44.973679 0.40924969 6
-42.46352 45.261013 0.40051979 6
-42.760326 -14.133122 0.83847183 8
-42.768711 3.6566956 0.97758043 8.0815001
-42.635159 22.551252 1.1019408 7
-42.641193 45.170021 0.90499967 7
-42.630318 45.271812 0.90501648 7
-42.510284 -15.318682 1.5536667 9
-42.603767 -14.993626 1.5488031 9
-42.593277 -14.543002 1.4955963 9.017333
-42.710335 -14.296353 1.5298014 9
-42.711544 57.89217 1.4161472 8
-42.474209 58.077118 1.4462954 8
-42.451057 -15.294309 1.6308596 9
-42.630558 -15.004565 1.6654252 9
-42.595455 -14.664839 1.7491637 9.0395002
-42.717304 -14.266582 1.763026 9
-42.479996 -12.472531 1.8008567 9.0038338
-42.665295 -12.197412 1.8124814 9.0022001
-42.768269 -11.974079 1.8021489 9
-42.46207 58.039066 1.6369259 8
-42.59235 -14.732207 2.2102058 10.094
-42.473835 -12.870377 2.3664379 10.094
-42.60997 3.4489334 2.2227972 9
-42.550579 -14.604981 2.693038 10
-42.769512 -14.075929 2.7149973 10
-42.416134 -12.870957 2.4625237 10.096
-42.569813 -12.754912 2.4839163 10.096
-42.687714 57.58749 2.6084549 8
-42.580109 57.816689 2.5176942 7.4545455
-42.528698 -14.613347 2.8235993 10.00675
-42.761814 -14.307931 2.9074295 10
-42.777962 56.720703 2.9789526 9
-42.593304 56.866241 3.0888073 9.1689997
-42.66526 57.563889 2.9297359 8
-42.517113 57.741802 2.9340434 8
-42.511654 -14.968883 3.5171928 10.022625
-42.611984 -14.576247 3.5226421 10.004869
-42.759159 -14.237678 3.5054355 10
-42.483864 -20.577572 3.8082459 10.099751
-42.782112 -20.395542 3.8068929 10.0935
-42.488613 -15.027211 3.8643343 10.0216
-42.704945 -14.505421 3.6623371 10
-42.706661 -14.361887 3.6816907 10
-42.706619 57.787231 3.9429567 8.5
-42.505314 -14.555133 4.3812385 11
-42.695538 -14.243758 4.3880839 11
-42.647346 3.3427951 4.025043 10
-42.796387 4.0028391 4.0577211 10
-42.632206 57.803059 4.1940851 8
-42.664478 91.727837 4.2854772 7
-42.57756 -14.888356 4.4918942 11
-42.624733 -14.61776 4.5800557 11
-42.734741 -14.30873 4.5432897 11
-42.579899 91.589218 4.7618232 8.1429996
-42.475773 -14.861477 4.8220124 11
-42.740635 -14.511428 4.9004521 11.0045
-42.79184 -14.379212 4.930871 11
-42.488682 91.639351 4.8402157 8.1424999
-42.524036 -14.886813 5.5235019 12
-42.589958 -14.591173 5.4401236 12
-42.717606 -14.242597 5.396575 12
-42.594044 -14.638552 5.7738218 12
-42.53978 3.1269135 5.8137622 11
-42.649021 3.3764517 5.8249106 11
-42.738815 3.6545055 5.8271403 11
-42.64996 57.019989 5.8495145 9.0825005
-42.556156 57.618496 5.7690234 9.1610003
-42.554642 -14.607195 6.2842746 12.833333
-42.728859 -14.310015 6.2847142 13
-42.678539 56.752949 6.222599 9
-42.572819 56.879356 6.1803818 9.033
-42.557014 83.16021 6.2734842 8.0429993
-42.491405 -14.897997 6.496007 13
-42.624413 -14.633271 6.5279198 12.924038
-42.794003 -14.271259 6.5440936 13
-42.632305 56.676826 6.4350758 9
-42.733986 56.883965 6.4056802 9
-42.607151 91.759659 6.6377897 8.066
-42.455372 -14.885326 6.9298291 13
-42.566597 -14.694423 6.9782619 13.083333
-42.587326 91.597542 6.9888134 8.0424995
-42.479355 -14.964155 7.4310989 13.5485
-42.60413 -14.565194 7.3555598 13.870928
-42.674747 -14.254804 7.2131906 14
-42.784225 56.352142 7.2391157 9
-42.512897 56.502544 7.2599735 9
-42.662804 57.431927 7.4793711 9
-42.548157 -14.623253 7.7544026 14
-42.787212 -14.042305 7.7289767 14.0895
-42.531887 3.0551381 7.6922183 12
-42.694397 3.3853743 7.7033029 12
-42.609253 56.584023 7.8135777 9
-42.72282 57.501926 7.8105607 9
-42.542961 57.671936 7.8567562 9
-42.788948 56.396652 8.7593288 10
-42.616638 56.603916 8.6901436 10
-42.599545 56.909996 8.6320486 10.044666
-42.414932 57.236794 8.5260086 10
-42.709236 56.336784 9.1043997 10.0108
-42.602299 56.547688 9.0287905 10
-42.473461 56.877876 8.898181 10
-42.587826 87.818642 9.1430931 9.0515003
-42.607559 3.0236492 9.5503397 13
-42.689266 3.3539445 9.5085115 13
-42.748844 56.337551 9.3468428 10
-42.569 56.56353 9.4332151 10.003086
-42.577068 56.909683 9.518507 10.0045
-42.656311 87.8452 9.3085184 9
-42.712273 3.5275085 9.6080809 13
-42.633224 56.240986 9.699873 10
-42.546585 56.527676 9.6607246 10.03861
-42.586311 56.9188 9.6222038 10
-42.472843 -25.133301 10.579222 14.099
-42.661816 55.892021 10.841157 11
-42.687336 56.336376 11.057823 11
-42.561901 56.553593 11.058777 11
-42.431164 56.807293 11.154382 11.099
-42.604618 87.883957 11.16288 9.0915003
-42.625763 88.013168 11.123118 9.0935001
-42.649906 2.9670048 11.416406 14
-42.760807 3.392884 11.497947 14
-42.751133 56.322052 11.330671 11
-42.584393 56.599506 11.32781 11
-42.548779 56.970257 11.43012 11.012075
-42.460911 57.472946 11.528915 11.152
-42.604446 56.272823 11.970166 11
-42.47551 56.473938 11.968236 11
-42.76535 -25.574074 12.074398 14.0965
-42.698101 56.417336 12.008965 11.0765
-42.420174 55.948841 12.917584 12
-42.607277 56.272533 13.089016 12
-42.560123 56.540554 13.100592 12
-42.512867 56.854225 13.082917 12.025499
-42.593796 56.312244 13.352978 12
-42.49865 56.508923 13.315069 12
-42.491238 56.980839 13.412629 12.004929
-42.611198 56.390984 13.641357 12
-42.598446 56.600681 13.855204 12.007071
-42.597118 56.179512 14.271976 12.075375
-42.66116 56.605145 14.102798 12.0165
-42.750015 56.311287 14.468181 12
-42.615643 56.461868 14.504544 12.0765
-42.6134 55.559891 14.933783 13.095
-42.599888 56.203186 15.003808 13
-42.535717 56.633884 15.006838 13
-42.402901 56.869087 15.163505 13
-42.637081 55.976704 15.322715 13
-42.551704 56.157368 15.350658 13
-42.626549 56.67083 15.260156 13
-42.609852 56.218815 15.787469 13.0002
-42.791389 55.961411 16.345922 13.1495
-42.630032 56.238663 16.069977 13
-42.734646 55.938465 16.699154 13.51875
-42.554565 56.099789 16.733078 13.677944
-42.53363 55.336876 16.943199 14.095
-42.754475 55.945915 16.917624 14.002714
-42.562805 56.1325 16.932194 14.003287
-42.602261 55.829872 17.440243 14
-42.586918 56.049232 17.246082 14
-42.259708 -14.207781 -4.5869002 7
-42.309799 3.8231347 -4.3807583 6
-42.220848 28.265234 -3.3828928 5
-42.251858 -14.592796 -2.8392043 8
-42.052132 3.2034891 -3.0301445 6
-42.228321 3.7320387 -2.8374455 7
-42.197014 -14.911243 -2.5377011 8.0679998
-42.275734 -14.65412 -2.6341922 8.0690002
-42.076027 -15.310979 -2.2211223 8.0930004
-42.196232 -15.106177 -2.1536541 8.0930004
-42.040031 3.3890281 -2.1522958 6
-42.050217 3.6769614 -2.2918925 6
-42.382759 4.1709657 -2.2722404 7
-42.08688 -5.8942051 -1.2389368 5
-42.198711 -5.3783345 -1.2306138 5
-42.203648 0.50665003 -1.3604436 5.6666665
-42.184273 3.022208 -1.5333414 8
-42.193481 3.5199499 -1.4634045 7.5
-42.211632 3.8456314 -1.2092215 6
-42.063957 -15.31115 -0.98601633 8.0944996
-42.213581 -15.199458 -0.83047479 7
-42.311153 -14.555253 -0.95548081 6
-42.301121 0.89263064 -1.0816683 5
-42.346867 1.3316753 -1.0726044 5
-42.018711 1.6711334 -1.0496557 5
-42.037598 3.4961379 -0.94308484 5.75
-42.125748 3.7898154 -0.88063848 5.5
-42.331196 4.0559173 -1.0545213 6
-42.042839 58.344212 -1.0458122 7
-42.274094 -15.003964 -0.68700564 8.7329998
-42.323219 -14.709343 -0.73083544 8
-42.276421 -1.3499253 -0.52213937 6
-42.344391 1.5793018 -0.63304675 6
-42.202778 3.5048852 -0.70534819 5.25
-42.208015 3.751569 -0.61570793 6
-42.319023 4.2474713 -0.7020005 5
-42.002689 -15.565092 -0.28935036 8.0959997
-42.125378 -15.046941 -0.23048277 7.8077497
-42.336361 -14.637444 -0.14679267 7
-42.162083 3.4726307 -0.15303227 6.1428571
-42.132977 4.0876122 -0.14566752 6
-42.264503 -15.75667 0.14774802 9.0939999
-42.19006 -15.33578 0.24291357 8.0936241
-42.280441 -15.1831 0.25492957 8.0939999
-42.059917 3.3112469 0.22755332 8.0830002
-42.05975 35.811615 0.17994118 7
-42.259094 36.263351 0.26030698 7
-42.160324 -15.779938 0.47430345 8.0295
-42.317574 -15.545454 0.51658118 8
-42.152557 3.3299661 0.46810141 8.0825005
-42.150043 45.402725 0.41316941 6
-42.188938 -15.394556 0.81395692 8
-42.161747 3.1938348 0.86898702 8.0825005
-42.297401 45.457588 0.92148697 7
-42.035305 -16.000393 1.5119932 9
-42.158688 -15.717597 1.5566053 9
-42.185497 -15.359257 1.5408252 9
-42.179688 58.291428 1.4029828 8
-42.020382 58.489235 1.5806817 8
-42.147995 -15.749197 1.6192663 9
-42.209435 -15.434764 1.6917986 9.0460005
-42.223198 -15.026797 1.7437357 9.0456667
-42.39164 -14.736826 1.7964283 9
-42.1628 -12.946564 1.7881507 9.0050716
-42.293804 -12.66194 1.7641064 9
-42.347675 58.266144 1.6418657 8
-42.059528 58.470528 1.6415406 8
-42.256744 -15.247438 2.2320857 10.094749
-42.133736 -13.346972 2.3249812 10.094333
-42.165073 58.181198 2.2925925 7
-42.189468 -16.25164 2.4835496 10
-42.101097 -15.624212 2.4881017 10.092
-42.28038 57.894199 2.5752447 8
-42.156902 58.13163 2.5045996 7.375
-42.023335 57.1399 3.1571853 9
-42.291523 57.886852 2.8200777 8
-42.116661 58.015427 2.8224692 8
-42.104118 -15.768786 3.482573 10
-42.094284 -15.324464 3.4880581 10.006679
-42.257584 -15.012156 3.5002432 10.007751
-42.362679 -14.752128 3.5201695 10
-42.053265 89.145432 3.2719731 7
-42.11533 -15.32288 3.7298965 10.021334
-42.304626 -15.019258 3.7401478 10.018726
-42.18959 58.105324 3.9839318 8
-42.35088 91.585335 3.8801813 8.1470003
-42.12524 91.721535 3.9623361 8.1462498
-42.066868 -15.250525 4.3661675 11
-42.245438 -14.964422 4.3612618 11
-42.307873 -14.787904 4.3724275 11
-42.349903 57.978642 4.1951885 8
-42.189232 58.12117 4.2032747 8
-42.036797 -15.774813 4.4708042 11
-42.09391 -15.344909 4.6161485 11
-42.269123 -15.017185 4.5136328 11
-42.20784 -15.348536 4.9295669 11.096001
-42.293079 -15.096364 4.8854408 11.0221
-42.05019 57.903519 5.1292086 9
-42.066231 91.814125 4.9850903 8.1429996
-42.065517 -15.68644 5.5023346 12
-42.09103 -15.306322 5.4232211 12.012571
-42.220257 -15.034719 5.386919 12
-42.329811 -14.783955 5.3179917 12
-42.08226 -15.346233 5.7184639 12
-42.278988 -15.070866 5.6807709 12
-42.246212 56.946438 5.9223909 9.0877495
-42.156353 57.409836 5.8429232 9
-42.068642 -15.311302 6.3457952 13
-42.249077 -15.06629 6.2618451 12.770269
-42.36356 -14.785858 6.2585111 13
-42.266594 57.005222 6.2256303 9
-42.064373 57.268181 6.2032971 9.0799999
-42.248043 83.447472 6.2786603 8.0422001
-42.081585 83.61042 6.2560654 8.04
-42.092442 -15.339478 6.5961013 13
-42.228966 -15.103016 6.5172095 13
-42.163181 57.030617 6.4355659 9
-42.148235 57.26918 6.4023094 9
-42.073265 57.619461 6.5132813 9
-42.049904 -15.342542 6.9607372 13.333333
-42.159264 -15.046549 7.1401639 13.857142
-42.309265 -14.796541 7.1948671 14
-42.301998 87.981285 7.1074672 9.1470003
-42.01252 -15.67298 7.5563183 14
-42.089226 -15.406603 7.4099617 13.796375
-42.288914 -14.942513 7.2997565 14
-42.239307 56.717751 7.2619967 9
-42.112576 56.856075 7.2938523 9
-42.166149 57.310043 7.3394146 9
-42.243774 57.74884 7.4620218 9
-42.105553 -15.679659 7.6043191 14
-42.178482 -15.043334 7.7320886 14
-42.283798 56.81699 7.8206873 9
-42.236183 57.875359 7.8592472 9
-42.04055 58.03875 7.8600106 9
-42.301861 56.727699 8.7438383 10
-42.207912 56.972179 8.690856 10.0066
-42.123825 57.433388 8.6652174 10
-42.184715 57.634468 8.4811726 10.141
-42.260769 56.694424 9.096777 10
-42.174004 56.929001 8.9662504 10.011107
-42.01228 57.357658 8.8276157 10
-42.358166 87.96936 9.1594496 9.0454998
-42.226433 56.706444 9.3529711 10.0077
-42.143753 56.954758 9.4750977 10
-42.063103 88.299629 9.2972355 9.0219994
-42.349541 56.376064 9.6660662 10
-42.218231 56.63435 9.6915646 10.022264
-42.171593 56.928963 9.6802139 10.048625
-42.04073 57.448135 9.6478138 10
-42.331284 -25.001003 10.296577 14.0995
-42.315201 55.928009 10.847027 11.095
-42.292484 56.154091 10.845374 11
-42.239403 56.709179 11.058945 11.002393
-42.124088 56.916656 11.068604 11
-42.397602 2.6053832 11.356754 14
-42.18792 56.742874 11.341431 11
-42.157085 57.00095 11.360869 11.002125
-42.143078 57.323654 11.426244 11.01965
-42.178005 56.611938 11.963183 11
-42.35125 56.688435 12.022546 11
-42.177738 56.827003 12.028623 11
-42.242989 56.254883 13.013675 12
-42.181976 56.620842 13.075915 12
-42.214169 56.991364 13.127735 12
-42.036896 57.312511 13.17202 12
-42.201042 56.63781 13.352745 12.004159
-42.214237 57.061619 13.27024 12
-42.14822 57.241676 13.415232 12
-42.351536 56.776257 13.72452 12
-42.145824 56.945839 13.829008 12
-42.356937 56.354736 14.292872 12.077
-42.14526 56.524498 14.352898 12
-42.207645 56.990917 14.091103 12.039499
-42.098011 56.731918 14.491685 12
-42.221329 57.044201 14.407847 12
-42.361938 55.862072 14.948004 13
-42.2939 56.320438 14.974075 13
-42.186543 56.570755 15.007548 13.003404
-42.192211 57.001602 15.071286 13
-42.00592 57.236786 14.982876 13
-42.303913 56.319664 15.383667 13
-42.176098 56.493389 15.3002 13
-42.189045 57.07642 15.309831 13
-42.030228 57.242485 15.295306 13
-42.368191 56.383392 15.998743 13.1615
-42.18568 56.546486 15.858888 13
-42.35709 56.372677 16.12154 13
-42.20805 56.506298 16.086603 13
-42.246315 56.307854 16.733189 13.666667
-42.073586 56.464252 16.727688 13.714286
-42.079876 55.73386 16.947166 14
-42.279533 56.297886 16.90801 14
-42.106472 56.469971 16.945459 13.965777
-42.327763 55.99485 17.549885 14
-42.188862 56.176487 17.410898 14
-42.165829 56.41885 17.25701 14
-42.161732 55.960037 18.308338 14.147
-41.742279 2.9360437 -4.3626981 6
-41.646919 3.5833075 -3.5424459 7
-41.957607 -14.851589 -2.8584797 8
-41.7463 -15.341754 -2.6415586 8
-41.883804 -15.194853 -2.6340806 8
-41.682178 -15.817808 -2.0784259 8.0935001
-41.876709 -15.507036 -2.3548968 8.0930004
-41.796745 3.3816886 -1.7099347 6
-41.618195 -15.97915 -1.2138619 8.0950003
-41.828552 -6.1742787 -1.2477791 5
-41.862827 -5.6281142 -1.2245426 5
-41.666069 1.0389603 -1.3126811 5
-41.949585 2.7522581 -1.5516665 8
-41.906349 3.4184635 -1.3911535 6
-41.683502 36.700317 -1.5911576 7
-41.673512 36.939598 -1.4777743 7
-41.763042 -15.612985 -0.86517495 7
-41.823524 -15.277209 -1.012659 6
-41.980064 -14.996728 -0.98224372 6
-41.6633 3.0079072 -1.0230992 7.3899999
-41.897774 3.4273477 -0.98110819 5.3333335
-41.615082 58.746574 -1.0418766 7
-41.712433 -15.999997 -0.56218415 9.1385002
-41.782124 -15.660609 -0.64087874 8.5475006
-41.650372 -15.509488 -0.45770144 9.1389999
-41.76329 -2.9177833 -0.5357759 6
-41.990368 -2.648412 -0.51988274 6
-41.848488 -1.9801167 -0.55912936 6
-41.864101 3.0332 -0.58049625 6
-41.77882 3.265187 -0.60204142 5.6666665
-41.641468 -16.146877 -0.22316171 8.09725
-41.876659 -15.671126 -0.36844021 8.0959997
-41.783825 -15.417016 -0.15604547 7
-41.913548 -15.143067 -0.073831685 7
-41.670319 1.8847049 -0.32107878 6
-41.659332 2.7167892 -0.24049149 6.6948333
-41.833553 3.0388694 -0.19500633 6.1428571
-41.601166 -16.606253 0.36574644 8.0895004
-41.73962 -16.113554 0.32393056 8.0909996
-41.871105 -15.751651 0.21456173 8.0942497
-41.678295 2.693378 0.23615423 8.0834999
-41.803391 2.8414903 0.012531458 7
-41.745026 35.407352 0.20654318 7
-41.68008 36.042004 0.007547176 7
-41.895618 45.69022 0.39172852 6
-41.662502 -16.482351 0.45395613 8
-41.837818 -16.282364 0.47243044 8.5475006
-41.993404 -15.663135 0.79722625 8
-41.878338 2.8795736 0.40228811 8.0830002
-41.797134 31.930456 0.41339704 6
-41.672611 45.864822 0.4717387 6
-41.881268 2.9965019 0.86590189 8.0820007
-41.883278 45.790249 0.96782047 7
-41.756657 58.582905 1.1832449 8
-41.688095 -16.521439 1.5220412 9
-41.82225 -16.17885 1.563104 9
-41.663887 -15.621275 1.5508131 9
-41.947067 -15.409817 1.4899099 9
-41.757797 31.191301 1.4263122 7
-41.800117 58.575054 1.4127649 8
-41.967979 -15.916315 1.6061968 9
-41.89381 -15.489561 1.6951295 9
-41.620895 -13.625201 1.6968338 9
-41.771652 -13.377815 1.7119641 9.0079165
-41.958214 -13.134156 1.7356101 9
-41.858311 45.441246 1.8736367 8.1049995
-41.777798 58.662224 1.6409647 8
-41.781982 -13.84063 2.3173411 10.095201
-41.974663 58.302753 2.3586485 7
-41.704433 58.473816 2.3741908 7
-41.796349 -16.860182 2.4760978 10.08625
-41.795128 -16.484489 2.4677215 10.092
-41.900749 -15.994188 2.4756541 10
-41.897263 -15.501438 2.7329161 10.0085
-41.839664 58.235054 2.5910635 8
-41.773067 58.512543 2.4752972 7
-41.890137 61.455154 2.7021825 7
-41.692802 89.04274 2.4214287 8.1479998
-41.820404 57.301441 3.1617594 9
-41.801632 58.246731 2.8741472 8.050334
-41.721409 -16.201296 3.4883637 10.0197
-41.727066 -15.740228 3.4811847 10.036466
-41.915447 -15.460476 3.486547 10
-41.915127 -15.541129 3.6367354 10
-41.648552 -15.736431 4.3137832 11
-41.873123 -15.489512 4.3500576 11
-41.915211 58.318287 4.188643 8.0044088
-41.694519 58.494217 4.1901898 8.0625
-41.781605 -16.170429 4.496017 11
-41.796379 -15.734475 4.5314388 11.031583
-41.932072 -15.497608 4.5657086 11.015958
-41.823345 -15.896411 5.0157204 11.0955
-41.77607 58.091663 5.1652794 9
-41.839008 91.969185 4.9233475 8.1420002
-41.728497 -16.241899 5.5072799 12
-41.733475 -15.798769 5.4126496 12
-41.894833 -15.47954 5.3815556 12
-41.986282 58.067211 5.2382755 9
-41.871418 -15.619506 5.6079965 12
-41.91404 -15.549664 5.7229638 12
-41.833275 57.502018 5.929503 9
-41.655872 57.728912 5.8694611 9
-41.819008 89.048462 5.8547392 8.0900002
