# .PCD v0.7 - Point Cloud Data file format
VERSION 0.7
FIELDS x y z
SIZE 4 4 4
TYPE F F F
COUNT 1 1 1
WIDTH 1468
HEIGHT 1
VIEWPOINT 0 0 0 1 0 0 0
POINTS 1468
DATA ascii
-33.69305 -8.0330515 0.91505182
-33.805298 -7.9198337 0.89996219
-33.876083 51.582386 1.3532562
-33.24485 -8.5140047 -0.47781071
-33.56638 7.8575621 -0.57725424
-33.410122 8.638958 -0.55229509
-33.525246 9.0200415 -0.58546388
-33.470909 44.995712 -0.54794216
-33.249626 -8.4796143 -0.14610402
-33.219551 -8.0309782 -0.085529715
-33.434967 6.9161553 -0.29772294
-33.291027 9.9367085 -0.10196236
-33.208199 10.007137 -0.28416082
-33.505653 -11.010283 0.11023441
-33.322731 7.372571 0.31776103
-33.417381 10.169532 0.32519171
-33.237728 -8.5425463 0.63886386
-33.233559 -8.0516376 0.41375539
-33.58662 10.515097 0.41274777
-33.540619 48.166225 0.49833676
-33.306919 48.556019 0.43382266
-33.599258 51.547192 0.44057932
-33.309071 51.70549 0.58746237
-33.230686 -8.1499386 0.92143655
-32.826637 -10.953658 -0.41090211
-32.891121 7.2824693 -0.55912679
-33.020947 8.9920845 -0.57498878
-32.892666 9.3597717 -0.51871026
-32.827164 9.8976746 -0.58333182
-32.934963 10.395977 -0.56557548
-32.969219 10.668419 -0.5551154
-33.006088 10.93835 -0.54533863
-33.020103 11.375617 -0.57761693
-32.957127 11.7632 -0.58659613
-32.986603 12.158492 -0.53894311
-33.076946 12.475712 -0.4898093
-33.000397 -8.4872818 -0.18758856
-33.051991 -8.328043 -0.16709915
-33.075436 7.4129815 -0.11380588
-32.869221 7.6315875 -0.15380378
-32.886059 9.4938831 -0.23065306
-33.059044 -8.570303 0.21114095
-33.144695 -8.3414078 0.32134604
-32.995323 7.5708966 0.25810328
-32.98098 7.6250257 0.24857539
-32.892673 8.0100689 0.10825993
-32.889416 9.4184914 0.28274292
-33.125023 9.7572069 0.30479407
-33.194695 51.996433 0.33109966
-33.080952 52.096588 0.17362489
-33.068233 -11.164345 0.66760784
-33.02499 -8.5123186 0.58374947
-33.173523 48.835789 0.45097157
-33.104156 51.894375 0.55231076
-32.886234 52.074635 0.56347758
-32.882362 -10.939884 1.0306964
-32.979252 -8.5391531 0.93456
-33.162544 -8.2598143 0.90622151
-33.054222 -11.723606 1.2045211
-32.5718 -10.910142 -0.43305382
-32.498539 -10.934228 -0.36731052
-32.415718 -10.755407 -0.27060986
-32.747952 7.4785228 -0.3218146
-32.416824 7.6304998 -0.2973167
-32.584362 9.0720701 -0.18359101
-32.609688 7.8419943 0.26164186
-32.578777 8.9678564 0.21893592
-32.731976 9.3302298 0.33496132
-32.572395 9.6710587 0.15907918
-32.786892 52.336376 0.34696516
-32.432835 52.536549 0.18752243
-32.625114 -11.172901 0.55441391
-32.532501 49.26553 0.48421896
-32.688313 52.205341 0.59372884
-32.52927 -10.86099 0.99729055
-32.577091 -7.7569785 0.83313894
-32.084286 -10.729143 -0.57902777
-32.327049 46.123714 -0.53475165
-32.22541 -10.985769 -0.17080326
-32.225689 -10.763641 -0.28504592
-32.132496 -8.5712795 -0.26743537
-32.194839 7.8634768 -0.21270069
-32.104359 8.1223984 -0.064652309
-32.219673 8.6017275 -0.24285223
-32.128254 -11.492997 0.05733056
-32.135284 -11.072664 0.1036621
-32.018543 -10.440465 0.14508374
-32.133469 -8.488327 0.22487505
-32.023342 -8.2854815 0.27914554
-32.230015 7.9472499 0.29497606
-32.156544 8.2839298 0.21515
-32.218662 8.5507812 0.1709383
-32.349068 8.8617258 0.30566764
-32.348953 52.690189 0.19586918
-32.021656 52.87188 0.3296271
-32.02359 -11.140454 0.58467156
-32.112671 -8.8874454 0.75065619
-32.056381 -8.2086 0.65561444
-32.148487 49.348969 0.49685016
-32.267738 52.540607 0.56872088
-32.198257 -11.642484 1.1738424
-32.109871 -10.884281 0.95010811
-32.003307 -8.2382298 0.93572837
-32.001217 -7.9760118 0.91910285
-31.686354 46.012119 -0.4187372
-31.787941 -10.890932 -0.31064457
-31.872849 -10.70897 -0.2283859
-31.84605 -8.8849382 -0.225431
-31.73514 -8.6312599 -0.16277835
-31.912962 8.1333075 -0.19720984
-31.684488 -10.886885 0.20016018
-31.712639 -10.450455 0.12980695
-31.681492 -10.124247 0.1770331
-31.741356 -8.9375992 0.10554545
-31.808094 -8.5079355 0.22738162
-31.759062 -8.2461033 0.28136054
-31.919926 8.6965809 0.13774155
-31.903465 -11.224857 0.63894558
-31.768692 -11.035711 0.67771465
-31.731302 -10.441889 0.77606755
-31.71743 -8.8863449 0.60026449
-31.739092 -8.5645123 0.73244894
-31.735907 -8.2320757 0.60306412
-31.69389 -7.8455806 0.48039314
-31.657618 49.53368 0.48559466
-31.860601 52.751408 0.56632924
-31.679937 52.923492 0.62282014
-31.778728 -10.878151 0.91069108
-31.944357 -9.0647135 0.82634723
-31.781599 -8.5746899 1.0273032
-31.730089 -8.2347975 0.8762213
-31.812378 -7.6481166 0.81673431
-31.873413 -10.545126 1.3588946
-31.714371 -9.0924778 1.3427874
-31.753941 -8.5998869 1.345103
-31.831184 -8.3444223 1.3135321
-31.693726 -7.8649387 1.285678
-31.384039 -10.949976 -0.55754417
-31.350899 -10.63661 -0.5598399
-31.396902 -8.6702156 -0.59538323
-31.441975 -11.359425 -0.031380292
-31.377777 -10.913166 -0.22104326
-31.498093 -10.688948 -0.22706056
-31.355812 -9.2437782 -0.391009
-31.420593 -8.9229736 -0.22175269
-31.369036 -8.6379232 -0.25266987
-31.360342 -11.211518 0.014907611
-31.395576 -10.950844 0.20797037
-31.392057 -10.585319 0.16323288
-31.330141 -9.4091425 0.21619509
-31.36043 -9.0139265 0.1287393
-31.413391 -8.6660938 0.25036407
-31.443741 -8.2173529 0.33358374
-31.294374 -7.8871245 0.38706651
-31.410788 -11.302964 0.65381145
-31.370852 -11.002685 0.5511862
-31.410204 -10.515631 0.77210033
-31.224743 -8.9900808 0.62379551
-31.460566 -8.6083069 0.65964711
-31.420412 -8.234952 0.55114949
-31.559738 -7.983726 0.42916071
-31.43862 49.940102 0.52861619
-31.454451 53.108986 0.62485856
-31.320814 53.225094 0.59672064
-31.569595 -12.198111 1.1458957
-31.334856 -11.942352 1.1371155
-31.398952 -10.865204 0.86717194
-31.348444 -9.4362116 0.98371696
-31.361948 -9.0273781 0.93604845
-31.333632 -8.5861645 0.93713379
-31.23074 -8.3245497 0.8570627
-31.555725 -7.9282427 0.85479385
-31.37768 -10.94306 1.3950512
-31.448971 -10.510601 1.3657696
-31.350176 -9.293973 1.2831743
-31.253481 -8.8472242 1.2764175
-31.3878 -8.5983047 1.3553492
-31.069513 -10.598842 -0.48742035
-30.976641 19.604418 -0.53264767
-30.893322 20.749289 -0.57472277
-30.957317 -10.966442 -0.12250124
-31.000019 -10.726086 -0.28761488
-31.083309 -8.9318027 -0.18780547
-31.1022 -8.6666641 -0.16207026
-30.944992 -11.455728 0.064249791
-30.950773 -10.956715 0.099887557
-31.053957 -10.687432 0.12525095
-30.869219 -9.6802521 0.32929215
-31.02067 -9.3410378 0.25134397
-31.001183 -8.9680681 0.2432404
-31.087934 -8.6231461 0.30954286
-30.92152 -8.2537813 0.38172773
-30.926781 -7.8078384 0.36574101
-30.94039 -11.416038 0.6836198
-30.980179 -10.987305 0.67604417
-31.007122 -10.582336 0.71666175
-30.865602 -9.746748 0.53445381
-30.859261 -9.4667702 0.74055666
-30.999701 -9.0073061 0.72108376
-30.991777 -8.5512733 0.53873557
-30.991331 -8.2990599 0.59871042
-31.147654 50.236626 0.54078209
-31.086157 53.368526 0.61841136
-31.176872 -12.171779 1.1320517
-30.932037 -11.610053 1.1271385
-30.879581 -10.8682 1.1566108
-31.038118 -9.4299421 0.81756878
-31.11982 -9.0154886 1.0672292
-30.999258 -8.5992537 1.033553
-31.142822 -8.2725286 0.8670541
-30.931835 -11.395581 1.3343152
-30.97748 -10.925417 1.3788972
-31.030718 -10.799447 1.2664328
-31.141386 -9.3338146 1.3243175
-31.094946 -9.0710411 1.3526021
-31.094122 -8.6265545 1.2369809
-30.865341 -8.2199526 1.269659
-30.666298 -10.992496 -0.50097829
-30.709852 -10.706531 -0.44295925
-30.629192 -8.8181639 -0.52630657
-30.526072 19.029537 -0.5894224
-30.692366 -11.299288 -0.059049524
-30.607574 -10.972195 -0.20132691
-30.605261 -10.712623 -0.34134552
-30.688313 16.907743 -0.28173622
-30.530924 -11.324599 0.052232724
-30.631306 -11.007823 0.10302518
-30.642389 -10.680238 0.14645751
-30.625828 -9.8120708 0.34151724
-30.720839 -9.4882765 0.30246633
-30.653166 -9.0019884 0.33441934
-30.576591 -8.601428 0.35454607
-30.658852 -8.2452021 0.33300897
-30.626478 -11.364036 0.68510681
-30.625526 -10.99466 0.64109474
-30.76862 -10.735576 0.71985716
-30.697081 -10.260298 0.72470969
-30.706987 -9.7809362 0.62833303
-30.53335 -9.454442 0.69955564
-30.562771 -8.8862429 0.57334495
-30.616625 -8.704093 0.62544465
-30.642294 -8.2210264 0.71935636
-30.788836 -7.9835758 0.73326129
-30.538639 50.258259 0.52219242
-30.483562 50.505249 0.55536968
-30.61537 53.715919 0.62709421
-30.724937 -12.308539 1.0979793
-30.564087 -10.928158 1.3171393
-30.182997 -7.5570941 -0.59996122
-30.27248 18.869572 -0.50649303
-30.32103 -11.53693 -0.074608326
-30.228109 -10.980966 -0.024779109
-30.255579 -10.754423 -0.30866894
-30.054079 -8.1235876 -0.35837257
-30.010019 -7.7210417 -0.17403573
-30.095922 -7.5474892 -0.16301461
-30.212503 -10.88747 0.068039685
-30.20373 -10.739532 0.16944145
-30.331051 -9.0305233 0.21615213
-30.383213 -8.8975515 0.65819144
-30.329327 -8.7480869 0.69898242
-30.029678 51.002174 0.5124833
-30.257257 53.973518 0.6423738
-30.115265 54.082088 0.67110199
-30.169571 -12.208349 1.0798701
-30.229198 -11.820045 1.0699027
-30.035591 -11.420141 1.0653383
-30.171139 -10.874538 1.1768067
-30.165194 -10.90569 1.2261999
-30.107531 -10.768282 1.2536274
-29.784603 -10.631659 -0.45095986
-29.835743 15.819094 -0.43229258
-29.815121 18.234106 -0.5993138
-29.773685 -10.658421 -0.26009038
-29.763268 -8.0559645 -0.25477242
-29.902313 -7.7871618 -0.18911441
-29.761059 15.826456 -0.2930634
-29.941187 16.599346 -0.33314076
-29.681156 -11.035317 0.44766635
-29.800146 -9.311923 0.6563558
-29.655754 -9.176116 0.62861657
-29.945417 -8.5506086 0.65666455
-29.96767 50.863998 0.58287388
-29.844606 54.265709 0.67232442
-29.678299 54.425896 0.64839655
-29.915091 -12.304186 1.0683084
-29.919024 -11.701218 1.0658242
-29.81189 -11.374908 1.1607395
-29.86619 -10.859262 1.1417112
-29.710236 -10.857884 1.2626823
-29.703407 -10.788367 1.2332976
-29.689571 50.9137 1.3335968
-29.224031 -10.642919 -0.51755792
-29.564516 -8.176465 -0.56912142
-29.515129 16.113028 -0.5139758
-29.325171 16.909988 -0.49062982
-29.244987 17.424128 -0.56742048
-29.41993 17.795036 -0.5565117
-29.30545 -10.883667 -0.29029667
-29.477345 -10.726886 -0.35458821
-29.551306 16.608221 -0.39988494
-29.467279 16.874168 -0.30761257
-29.472874 17.434795 -0.30277604
-29.596052 17.799223 -0.38211414
-29.357885 -9.8337078 0.14652304
-29.432911 -11.088717 0.4959408
-29.360941 -9.2482033 0.62220192
-29.38858 -9.0446959 0.61488611
-29.299438 -8.6020021 0.58812183
-29.352859 54.612587 0.70544022
-29.598543 -12.211272 1.0589737
-29.218016 -11.379241 1.1658056
-29.347616 -10.848545 1.1422597
-29.374096 -10.783347 1.1922712
-29.374477 -10.908587 1.2922238
-29.325251 -10.775102 1.3959728
-29.263498 -9.0770035 1.3553083
-28.898396 -8.5997505 -0.57599264
-28.909746 16.620394 -0.5689894
-29.030468 -10.670573 -0.31790975
-28.884247 -8.9672575 -0.092785195
-28.847881 -8.5666513 -0.14899577
-28.848547 -8.1917934 -0.14964457
-29.171631 17.258503 -0.36899704
-28.941492 -13.076853 0.38079563
-28.951633 -12.208575 0.35608095
-29.038761 -11.073599 0.21763331
-28.938452 -8.9504356 0.037351854
-28.912487 -8.5018272 0.27826917
-28.963472 -8.2576218 0.28632084
-28.941622 -10.970724 0.48797163
-28.812195 -10.7336 0.79596305
-28.83658 -8.8960953 0.58218706
-28.954185 -8.6271687 0.55910289
-28.937462 -8.1938658 0.62175733
-29.194061 48.200485 0.78936148
-29.197754 54.761024 0.68080121
-28.961403 54.891621 0.71381754
-28.938723 -11.760963 1.0231727
-29.098772 -11.349097 1.0746664
-29.034395 -10.871462 1.0672215
-28.824303 -10.759034 0.93835491
-28.868505 -9.376009 1.1444438
-28.903913 -8.4788656 1.0490152
-28.991016 -8.2432117 1.035599
-29.024353 -10.838964 1.3243549
-29.001366 -10.797523 1.3125677
-28.889013 -8.9243488 1.2483412
-28.767906 -11.235215 -0.4567205
-28.556366 -10.635096 -0.48142442
-28.53787 -8.9748745 -0.5775277
-28.574184 -8.5879135 -0.59029639
-28.618887 -8.2240763 -0.59006608
-28.658453 16.776232 -0.59025085
-28.644361 -10.821955 -0.32971171
-28.624958 -10.689865 -0.31237909
-28.46492 -9.2236023 -0.026624611
-28.491823 -9.0846128 -0.1948643
-28.561777 -8.565402 -0.15934595
-28.710917 -8.3540964 -0.22078462
-28.460148 -10.948042 0.33803359
-28.6457 -10.744589 0.263744
-28.610888 -9.2578974 0.10099714
-28.663912 -8.9264679 0.077665903
-28.569292 -8.6085196 0.17798352
-28.591757 -8.2524061 0.24287049
-28.505936 -7.8900151 0.29370424
-28.642187 -11.000281 0.56910145
-28.539337 -10.768064 0.78459471
-28.49752 -9.2224426 0.55408585
-28.599571 -8.9639063 0.55332899
-28.607288 -8.6674776 0.55592752
-28.567051 -8.1753139 0.67650628
-28.622108 -7.8258791 0.66179138
-28.757109 50.687557 0.63713902
-28.624239 50.83514 0.64294046
-28.647942 55.0686 0.7329514
-28.4722 55.301319 0.73081845
-28.544077 -11.31383 1.0745417
-28.601053 -10.8406 1.1064314
-28.619045 -10.768463 1.0393763
-28.596895 -9.3678131 1.008597
-28.538092 -8.9126482 1.1065807
-28.493334 -8.6385794 1.0352545
-28.527712 -8.1748648 0.98221719
-28.635376 -7.8856187 1.0196986
-28.577551 -10.831332 1.3032271
-28.599613 -10.738075 1.2897978
-28.566326 -8.6151342 1.2702824
-28.512335 -8.1805906 1.3734784
-28.206667 -10.659558 -0.53023505
-28.212774 -9.0105 -0.59986007
-28.299652 -8.6014395 -0.55125326
-28.365854 -8.21632 -0.55205923
-28.241508 -7.9469247 -0.42836195
-28.069948 13.243851 -0.55679572
-28.215614 14.723368 -0.58532238
-28.172354 15.201247 -0.56397694
-28.146528 -10.802039 -0.25169191
-28.203648 -10.686472 -0.32310688
-28.313766 -9.2670717 -0.08189287
-28.186756 -8.9894295 -0.23291989
-28.29903 -8.6213484 -0.25196406
-28.28644 -8.3043556 -0.26633745
-28.221464 -7.9755759 -0.28677964
-28.27899 -10.931026 0.18862268
-28.298265 -10.69138 0.22214244
-28.236111 -9.2362843 0.10922571
-28.178215 -8.9777517 0.13102187
-28.202248 -8.5796175 0.25965211
-28.274689 -8.2540407 0.26392129
-28.15173 -10.8088 0.61971062
-28.242464 -10.744563 0.66456401
-28.265852 -9.207056 0.62728047
-28.174095 -8.9513187 0.56149942
-28.151678 -8.6270218 0.56830221
-28.194403 -8.2253265 0.63352799
-28.346104 -7.9200878 0.74348444
-28.23517 50.599079 0.63910758
-28.306787 51.034676 0.64832199
-28.123037 51.36945 0.66068262
-28.167425 55.44669 0.7617569
-28.14801 -11.313569 1.0707682
-28.25309 -10.879807 1.0508964
-28.157841 -10.690201 1.0635325
-28.020395 -9.4916506 1.0975201
-28.131159 -8.9890471 1.0633281
-28.161684 -8.5805874 1.0114707
-28.257799 -8.2783184 0.98531711
-28.399399 -7.9086051 1.0108401
-28.241762 -10.87419 1.2881159
-28.177902 -10.744441 1.3802003
-28.234648 -8.8214846 1.379766
-27.792126 -11.002655 -0.58767611
-27.795685 -10.641526 -0.5345915
-27.728464 -8.6071291 -0.44871879
-27.949169 14.078744 -0.54489505
-27.881624 14.908929 -0.55714005
-27.84095 -11.267359 -0.14477298
-27.762163 -10.957154 -0.15062478
-27.840929 -10.706834 -0.26217809
-27.634628 -9.4734774 -0.22230275
-27.883099 -9.0447474 -0.12424199
-27.812506 -8.5947485 -0.27111015
-27.850031 -8.2821751 -0.29400891
-27.860445 -10.924438 0.23969564
-27.811302 -10.672171 0.1641659
-27.924484 -10.252502 0.15153943
-27.770607 -9.6772671 0.25984156
-27.772678 -9.3935099 0.21228854
-27.841602 -8.9340448 0.24690856
-27.845022 -8.6006966 0.26850316
-27.778074 -8.2577572 0.19404349
-27.732014 -7.8228354 0.19932443
-27.819038 50.503944 0.38547006
-27.738867 -10.91482 0.50613075
-27.787661 -10.720317 0.60239136
-27.769655 -9.8391943 0.53048903
-27.705458 -9.4796772 0.56960964
-27.733059 -8.9546537 0.5427528
-27.773762 -8.5745173 0.55576742
-27.827621 -8.2496157 0.55127734
-27.696825 -7.9073277 0.49633777
-27.929134 49.106895 0.74032646
-27.785509 51.487095 0.66595179
-27.826542 55.706875 0.76678079
-27.809219 -11.295197 1.0272886
-27.800117 -10.915275 1.1011112
-27.779642 -10.701651 1.0741829
-27.839159 -9.8213043 0.96428633
-27.812544 -9.4086971 0.96753567
-27.769596 -8.9544888 0.94762862
-27.766008 -8.6289263 0.93937707
-27.833513 -8.3563671 0.93283224
-27.624979 55.78912 0.81694579
-27.615398 -11.301677 1.2163377
-27.717224 -10.863404 1.3066379
-27.783911 -10.740514 1.384478
-27.783007 -9.1637383 1.2523252
-27.827591 -8.7324772 1.35179
-27.378128 -10.679568 -0.5759908
-27.326916 11.576277 -0.56320494
-27.287102 11.780339 -0.59410083
-27.285021 16.087065 -0.52679324
-27.430754 -11.249538 -0.13201332
-27.417091 -10.974215 -0.15021607
-27.425293 -10.690598 -0.23040479
-27.234934 -9.2492828 -0.22546744
-27.430016 -8.8630037 -0.15570194
-27.467527 -8.5331373 -0.33453846
-27.572306 -8.3126173 -0.35868216
-27.29924 11.548326 -0.17760782
-27.255194 11.733265 -0.20623311
-27.295015 13.001423 -0.28915241
-27.37772 13.518857 -0.29510558
-27.564497 -11.213102 0.0020579146
-27.483353 -10.986471 0.31380683
-27.421549 -10.712485 0.18059254
-27.395056 -9.6734209 0.19312873
-27.382235 -9.3171806 0.1885089
-27.359583 -8.9336433 0.26295039
-27.427774 -8.5664101 0.14209111
-27.467438 -8.2151756 0.19904776
-27.248901 11.735103 0.14455639
-27.348532 -11.261106 0.50718194
-27.399626 -11.024966 0.49412462
-27.409233 -10.708866 0.55049163
-27.306093 -9.6159935 0.5001021
-27.375629 -9.3508911 0.59178758
-27.424927 -9.0011072 0.54875767
-27.469563 -8.5794697 0.53445452
-27.540449 -8.1801567 0.50180525
-27.443171 50.26886 0.60922307
-27.367714 50.930431 0.60749078
-27.480078 55.890636 0.70964485
-27.341787 56.050266 0.79558849
-27.351358 -11.289088 1.0742122
-27.345694 -10.966626 1.0696322
-27.436323 -10.727709 1.0542287
-27.360098 -9.2822132 1.0231217
-27.397516 -8.9768391 0.93175
-27.499859 -8.5986547 0.93260854
-27.446108 55.96262 0.81330585
-27.275642 56.113049 0.81929767
-27.482464 -11.002944 1.3800908
-27.385132 -10.732044 1.3499588
-26.988222 -10.64397 -0.599105
-26.923922 13.294748 -0.59855944
-26.998522 13.754646 -0.57643366
-27.142601 14.584767 -0.58433062
-27.063492 -11.230428 -0.1212718
-26.866343 -11.106822 -0.27401787
-26.982874 -10.677192 -0.25583556
-27.173611 -8.6990442 -0.22685483
-27.015015 11.57793 -0.29970571
-26.970896 11.835226 -0.18015194
-26.86886 12.030499 -0.31034735
-26.932501 13.467134 -0.36011672
-27.0795 49.374416 -0.103715
-27.08683 -10.903395 0.22226949
-26.971703 -10.671176 0.12277155
-26.984926 -10.276891 0.12256466
-27.155392 -8.9352665 0.16881976
-26.991648 11.842356 0.1620291
-27.050552 -11.251075 0.48766246
-26.997557 -10.988555 0.46235815
-26.996851 -10.703832 0.50851089
-27.092802 -9.03549 0.55724227
-26.867277 49.65276 0.78673404
-26.904284 56.415546 0.61863601
-26.924252 -11.21028 0.9934811
-27.032246 -11.077733 1.0279588
-26.962435 -10.722069 1.0259308
-27.188536 -9.2275629 0.82186311
-27.12932 -8.9788952 0.9208895
-27.077391 56.230724 0.82464707
-26.82844 56.419563 0.82884246
-27.021414 -11.219531 1.26833
-26.969007 -10.919587 1.3034592
-26.758389 11.932225 -0.45913565
-26.487417 12.282994 -0.59799266
-26.608004 -11.225146 -0.22388437
-26.619127 -10.968445 -0.20363463
-26.596188 -10.688899 -0.23001668
-26.456964 -8.3893585 -0.33235908
-26.700951 11.909619 -0.2389857
-26.54929 12.168181 -0.19723375
-26.659679 13.428274 -0.32870999
-26.672102 14.146986 -0.36439848
-26.561304 49.856567 -0.24146995
-26.640207 -10.690351 0.091000691
-26.695581 11.91394 0.29167971
-26.552736 12.157225 0.14376841
-26.699772 -11.224908 0.45324418
-26.569002 -11.008556 0.45974895
-26.598663 -10.714298 0.47019607
-26.584587 -11.228402 1.0141855
-26.625069 -11.049652 1.0078307
-26.590916 -10.710868 1.0075182
-26.796026 56.381775 0.83780277
-26.565025 56.626316 0.83823818
-26.551914 -10.942264 1.3818835
-26.182428 -10.630064 -0.57218492
-26.290997 12.291434 -0.57285219
-26.253004 12.414178 -0.53003871
-26.282658 -11.274239 -0.16382471
-26.209454 -11.027838 -0.16736142
-26.202887 -10.704304 -0.14567858
-26.011522 -8.2104902 -0.36174741
-26.230389 12.300664 -0.21190962
-26.098146 12.505988 -0.22980438
-26.257566 13.142178 -0.2878736
-26.213926 -10.935045 0.31876862
-26.023396 -10.782228 0.32729748
-26.27861 12.302001 0.19526377
-26.122263 12.497087 0.12699568
-26.301176 -11.250109 0.45312718
-26.257029 -10.96617 0.4408845
-26.176239 -10.703299 0.43773311
-26.014494 50.214455 0.7720719
-26.124493 56.833736 0.75994086
-26.379316 -11.366506 1.0377438
-26.297335 -11.171795 0.98096859
-26.192554 -10.723498 1.0274585
-26.357828 56.717136 0.83287579
-26.202677 -11.064968 1.3935971
-26.178093 -10.731876 1.392545
-26.08864 75.45253 1.3245748
-25.675999 -7.8454609 -0.59023631
-25.810465 49.613457 -0.54985088
-25.788872 -11.246343 -0.13833611
-25.796154 -10.973631 -0.1463028
-25.819492 -10.645164 -0.22263257
-25.899672 -8.100131 -0.17978439
-25.940054 -7.9671865 -0.040394902
-25.914438 12.333033 -0.29169309
-25.829273 12.640146 -0.20555039
-25.641933 12.871703 -0.2053702
-25.919336 -10.907992 0.2839002
-25.767672 -10.742773 0.39935905
-25.929804 -7.8901639 0.017332871
-25.970558 12.35265 0.25328282
-25.820402 12.598036 0.20733005
-25.650162 12.832039 0.16430092
-25.92675 -11.216329 0.43070647
-25.893589 -10.966728 0.42765215
-25.877148 -10.693137 0.41820046
-25.696144 53.885658 0.7893557
-25.688101 -10.950403 1.1012403
-25.775497 -10.721834 0.98198426
-25.69116 57.211926 0.85670483
-25.410185 12.987754 -0.58854169
-25.428501 -10.599624 -0.26326776
-25.536591 -8.0444069 -0.005753519
-25.511274 12.751073 -0.26586372
-25.38798 12.975821 -0.23304817
-25.571962 -10.903273 0.27382076
-25.330494 -10.717589 0.12353314
-25.301668 -8.0910482 0.32690147
-25.496206 12.734131 0.2748912
-25.403807 12.939697 0.1865841
-25.445627 50.365372 0.063602112
-25.340038 54.555214 0.45282289
-25.539787 57.458588 0.67362911
-25.223911 57.72625 0.60182446
-25.334892 -10.806128 1.1322742
-25.371227 -10.718405 1.0035955
-25.4491 57.370247 0.8950122
-24.929003 -10.597523 -0.55662298
-24.863916 -10.57442 -0.35755336
-24.925472 -8.1978903 -0.22300734
-25.069082 13.070199 -0.23067363
-24.951519 13.33419 -0.19242635
-25.055609 -10.954014 0.27985629
-24.941002 -10.682343 0.11683207
-24.902142 -8.448329 0.3694751
-24.971897 -8.1660652 0.27995783
-24.960947 -7.9057674 0.24098743
-25.063732 13.055842 0.27434021
-24.96216 13.303432 0.18860365
-24.846951 -8.4264774 0.66983718
-25.009192 -8.1408777 0.58177429
-25.021214 -7.8890944 0.55358428
-25.170431 50.729427 0.66667014
-24.931095 -11.062081 0.90603447
-24.997969 -10.706517 0.98782349
-25.192368 57.608864 0.91992879
-24.817562 -8.2391872 1.3504121
-24.403818 -10.959614 -0.59446013
-24.528229 -10.576672 -0.56051302
-24.55315 -8.6135111 -0.57367027
-24.598202 -8.2762756 -0.57424849
-24.679754 13.508192 -0.58183819
-24.539005 -10.580462 -0.37248608
-24.53833 -8.9794884 -0.23934439
-24.541843 -8.5106239 -0.17413025
-24.573376 -8.1965656 -0.22873454
-24.667358 13.502399 -0.20350038
-24.549072 13.658305 -0.22059861
-24.440271 -11.017264 0.21366085
-24.552223 -10.639524 0.14465389
-24.492081 -8.9263763 0.23251238
-24.56621 -8.5124865 0.30874413
-24.582495 -8.2123775 0.25327185
-24.563652 -7.9311652 0.18632957
-24.654219 13.455473 0.18907438
-24.49387 13.683356 0.10567146
-24.450924 51.1633 0.19996965
-24.774143 54.360744 0.36456406
-24.456739 -10.710501 0.70158875
-24.613297 -8.6331873 0.70354539
-24.550306 -8.1679125 0.67562461
-24.538256 -7.9197369 0.59475511
-24.550406 58.101707 0.6097964
-24.5653 -10.675586 0.92380112
-24.545485 -8.5005016 0.94127476
-24.511539 -8.3161736 0.92103672
-24.500029 -10.704839 1.2523676
-24.721752 -8.2838068 1.3446641
-24.143021 -10.570511 -0.55722153
-24.178478 -9.2904186 -0.52862078
-24.295509 -8.2409296 -0.59526139
-24.072134 -10.829912 -0.38665253
-24.128082 -10.563571 -0.35409713
-24.208294 -10.273128 -0.15374392
-24.093243 -9.3371534 -0.2263338
-24.205921 -8.9497232 -0.25526679
-24.148781 -8.6328287 -0.2614896
-24.254293 -8.2398777 -0.24279699
-24.337543 13.539887 -0.28615028
-24.193684 13.841488 -0.24058384
-24.065125 14.038721 -0.20369706
-24.121483 -10.841148 0.13992672
-24.199646 -10.618133 0.12980667
-24.084299 -10.194439 0.3295745
-24.168671 -8.8625717 0.32558912
-24.203001 -8.5392914 0.26182413
-24.216795 -8.2185078 0.17637968
-24.256916 -7.9213529 0.19014168
-24.353903 13.527777 0.25838256
-24.169149 13.792324 0.17474657
-24.256077 -10.903228 0.57168698
-24.166611 -10.643883 0.68151957
-24.1544 -8.9945345 0.71872759
-24.144346 -8.5252056 0.6458382
-24.221058 -8.1990051 0.62444788
-24.148972 -7.962472 0.63101518
-24.068392 51.677277 0.72879541
-24.103733 58.440109 0.67572254
-24.259663 -10.905951 1.1674914
-24.223597 -10.674087 0.95938706
-24.17791 -8.5290499 0.92329192
-24.243725 -8.2693787 0.89781278
-24.154791 -8.2945251 1.3095733
-23.782829 -10.55891 -0.56728655
-23.713043 -9.6174412 -0.44212431
-23.613586 -9.2426882 -0.53842497
-23.823181 -9.0066376 -0.53433686
-23.84617 -8.6433067 -0.58101517
-23.89307 -8.3675842 -0.54843777
-23.753883 -10.987517 -0.23028724
-23.751554 -10.553267 -0.26716173
-23.78882 -10.249768 -0.2425988
-23.780357 -9.4405375 -0.27333668
-23.835192 -8.8697939 -0.28386024
-23.79747 -8.5848064 -0.22119404
-23.848639 -8.059907 -0.18661784
-23.880438 13.851831 -0.27531004
-23.766777 14.165055 -0.22158808
-23.736462 -10.898257 0.16551341
-23.777222 -10.6226 0.1495771
-23.813311 -10.220889 0.35249892
-23.702335 -9.8130817 0.16127057
-23.656399 -9.3715715 0.13039795
-23.791964 -8.9172277 0.23571701
-23.788467 -8.5534906 0.21482821
-23.8211 -8.2724037 0.19246119
-23.85586 -7.9315362 0.011929847
-23.824305 13.927827 0.21010716
-23.756794 14.154937 0.13903767
-23.934853 51.955521 0.2601493
-23.729809 -10.914511 0.73672754
-23.812559 -10.624304 0.60142535
-23.661409 -10.236492 0.72602671
-23.71438 -9.3210611 0.75693148
-23.653467 -8.9477119 0.65283477
-23.77244 -8.5880146 0.66813946
-23.822493 -8.2731047 0.58160436
-23.902279 51.873161 0.46698183
-23.757811 58.633297 0.68145609
-23.644394 -10.869335 1.146498
-23.815836 -10.660675 0.95715111
-23.692019 -9.61164 1.0512052
-23.718784 -9.2599554 0.89657068
-23.727064 -8.94594 0.89480752
-23.768585 -8.5996542 0.91721421
-23.914869 -8.3646431 0.93404657
-23.649654 55.398285 0.87403393
-23.863111 -8.5833731 1.3606243
-23.940653 -8.2979774 1.284865
-23.366713 -11.018382 -0.58871979
-23.416754 -10.537764 -0.54404539
-23.333994 -10.315141 -0.51926082
-23.393194 -9.1225033 -0.46781814
-23.395252 -8.6906624 -0.59319341
-23.52944 14.337567 -0.56730378
-23.394743 -11.059427 -0.22863235
-23.403099 -10.558653 -0.25197396
-23.287676 -10.214351 -0.046592698
-23.532139 -9.6999884 -0.39623392
-23.465603 -9.3653669 -0.23720767
-23.365236 -9.0787048 -0.1690066
-23.451279 -8.594758 -0.063815542
-23.479639 -8.349184 -0.23966499
-23.532379 14.315842 -0.21984619
-23.322889 14.517243 -0.24571978
-23.394743 52.414948 -0.0637087
-23.378407 -11.027507 0.22612454
-23.41744 -10.595044 0.17143558
-23.283562 -10.243294 0.3264991
-23.494165 -9.6257496 0.1574375
-23.46221 -9.364604 0.13381304
-23.395155 -9.0016222 0.18657276
-23.430347 -8.6093788 0.19254474
-23.509859 -8.3150234 0.18304567
-23.445503 14.252118 0.2125625
-23.315536 14.509065 0.1227501
-23.337725 56.123264 0.08908131
-23.380102 -11.010406 0.63364351
-23.444216 -10.600733 0.64692432
-23.297684 -10.265896 0.70312053
-23.307634 -9.6359282 0.72419035
-23.3384 -9.3424826 0.64060229
-23.389233 -8.92729 0.62043422
-23.432095 -8.6336737 0.61284995
-23.596388 51.688179 0.72753
-23.251019 52.152325 0.71771133
-23.326685 -11.21487 1.0756077
-23.455877 -11.004264 0.90707213
-23.398146 -10.626261 0.97523963
-23.467239 -9.6617079 0.82860494
-23.366623 -9.3888626 0.92668182
-23.473841 -8.9964857 0.91823721
-23.478514 -8.6721172 0.9534474
-23.385029 -9.2645025 1.338135
-23.481472 -8.6838112 1.3817292
-23.02322 -10.545864 -0.53965193
-22.938671 -10.278523 -0.53106409
-23.051483 14.704571 -0.5908888
-22.988169 -11.067448 -0.2157488
-23.028656 -10.571051 -0.26214391
-23.078337 -10.290338 -0.22536044
-23.180716 -9.2521524 -0.053227901
-23.118368 -8.7098246 -0.02943716
-23.010891 14.698957 -0.21392055
-22.878881 14.834163 -0.23685375
-23.191769 59.533215 -0.17486212
-22.80891 -11.245312 0.25225025
-23.003496 -11.021735 0.22723278
-23.010584 -10.603962 0.19371444
-22.96369 -10.244737 0.30931622
-23.132339 -9.0630503 0.32660037
-23.119314 14.367579 0.23506145
-22.994501 14.617826 0.16940573
-22.871771 14.851308 0.069037199
-23.014883 -11.069712 0.62203681
-23.038095 -10.59516 0.63780564
-22.966465 -10.279361 0.68242323
-23.084661 -9.2830544 0.59280616
-23.146175 -8.9848967 0.63980591
-23.177898 -8.6795197 0.40699542
-23.121302 56.233372 0.4137361
-22.986738 59.183754 0.62127602
-22.903591 59.317986 0.57875675
-23.055851 -11.222432 1.0300868
-23.035463 -11.105076 0.92252463
-23.046329 -10.63078 0.94896841
-23.087029 -9.1514864 1.0428935
-23.172419 -8.7810631 0.93988842
-23.131794 55.807587 0.89970827
-23.067389 56.196396 0.94559664
-23.091585 59.105766 0.82241935
-22.910601 59.29858 0.91549665
-23.107071 71.066406 1.2986916
-22.604437 -11.00004 -0.55592376
-22.608047 -10.526214 -0.51612687
-22.594479 -10.326426 -0.52335984
-22.775524 14.757373 -0.59379941
-22.600737 15.041897 -0.58357131
-22.647409 -10.998889 -0.24381773
-22.586767 -10.560383 -0.23535782
-22.581251 -10.334877 -0.28996748
-22.611099 15.021402 -0.2447245
-22.723776 52.614132 -0.09023577
-22.615316 -11.002579 0.22653468
-22.617182 -10.590949 0.1670368
-22.569784 -10.280647 0.28937596
-22.628878 14.763888 0.24351327
-22.565338 15.01395 0.12302327
-22.615961 -11.025414 0.64271945
-22.631012 -10.583239 0.632581
-22.5931 -10.276438 0.65909839
-22.652111 51.962536 0.70587343
-22.566072 -11.110362 0.94988626
-22.612915 -10.615075 0.93634331
-22.665432 59.42519 0.95144892
-22.584034 -10.337594 1.3874027
-22.224678 -11.009911 -0.56688905
-22.236261 -10.53076 -0.54457289
-22.159575 -10.333961 -0.47536758
-22.33189 15.107143 -0.5691995
-22.181545 15.356754 -0.59588891
-22.12454 52.978161 -0.52129561
-22.236496 -10.995756 -0.22382985
-22.210129 -10.553373 -0.23541985
-22.119871 -10.343357 -0.28359425
-22.295923 15.155168 -0.22357243
-22.16794 15.336069 -0.21505256
-22.178885 15.845183 -0.37680626
-22.22159 -11.035986 0.23524299
-22.213503 -10.589942 0.17305234
-22.214947 -10.276882 0.27132896
-22.273256 15.074001 0.19442178
-22.15498 15.326308 0.11727235
-22.329386 56.720394 0.26134267
-22.225557 -11.05258 0.66391093
-22.180544 -10.590476 0.6452409
-22.235197 -10.286657 0.63835794
-22.315184 59.807545 0.74953401
-22.312141 -11.634178 0.83016711
-22.307005 -11.264217 0.91770911
-22.205427 -11.034837 0.94543213
-22.181646 -10.621885 1.0453033
-22.319883 59.68198 0.89803892
-22.2274 -10.333401 1.3596659
-21.829187 -10.945822 -0.57571256
-21.787619 -10.510841 -0.51793146
-21.763859 -10.330469 -0.45838231
-21.849693 15.500468 -0.50573689
-21.831636 -10.966283 -0.21564288
-21.808767 -10.550058 -0.20727149
-21.808323 -10.304202 -0.24976458
-21.893301 15.500353 -0.19641139
-21.756605 15.679486 -0.18582952
-21.803625 53.081886 -0.03149661
-21.784267 -10.953667 0.21798493
-21.790058 -10.579304 0.1666425
-21.886042 -10.277366 0.25517091
-21.978254 15.131756 0.18876243
-21.825722 15.408777 0.16546938
-21.750519 15.686904 0.15521963
-21.858377 51.93948 0.095875628
-21.814009 -10.995589 0.6500234
-21.762087 -10.550824 0.62585551
-21.907274 -10.318984 0.62141222
-21.721287 60.134861 0.60162818
-21.803461 -11.229466 0.99476391
-21.803701 -11.013483 0.95363671
-21.774813 -10.625327 1.0141098
-21.966492 55.647202 0.94635057
-21.884127 59.94981 0.94409251
-21.737545 60.090889 0.88577479
-21.634714 68.722702 1.0511198
-21.864592 69.054352 1.0955156
-21.862415 70.982399 1.0922678
-21.761122 71.751663 1.1962366
-21.881813 -10.339024 1.3355265
-21.393864 -10.955675 -0.58944529
-21.383535 -10.511972 -0.4989157
-21.417892 -10.318935 -0.47362983
-21.417938 15.881968 -0.58400321
-21.387217 -10.97041 -0.20270444
-21.404829 -10.545169 -0.18719935
-21.375603 -10.352926 -0.27910766
-21.560753 15.585211 -0.39418459
-21.409477 15.865582 -0.23184843
-21.240557 16.037392 -0.21309027
-21.3267 60.745495 -0.25404957
-21.37929 -10.970483 0.2053041
-21.379169 -10.559562 0.17331803
-21.541203 -10.27254 0.23864739
-21.461973 15.521131 0.19615699
-21.362972 15.8278 0.13290931
-21.245836 16.051414 0.14767374
-21.595863 57.214695 0.38278103
-21.426855 -10.967072 0.67812741
-21.369568 -10.530835 0.594486
-21.441395 -10.308135 0.59581876
-21.341953 52.949745 0.67974102
-21.327545 60.428574 0.55948937
-21.215868 68.077713 0.74591595
-21.38275 -11.085277 1.0205163
-21.384985 -10.595337 0.98469347
-21.371346 60.288849 0.98744839
-21.273886 60.436352 0.91010576
-21.276098 68.15583 0.98788577
-21.439753 -10.331775 1.3054655
-21.229246 68.304947 1.2560668
-20.97179 -10.955589 -0.56171501
-20.994753 -10.519041 -0.52421755
-21.001389 -10.333285 -0.48651463
-21.153301 15.911594 -0.47410357
-20.989662 16.189291 -0.5806492
-20.99284 -10.981226 -0.18674016
-21.008104 -10.539929 -0.17662071
-20.993517 -10.312115 -0.1387092
-21.107109 15.86664 -0.27346921
-21.028717 16.14768 -0.24558924
-20.992273 -10.989139 0.19523606
-20.979437 -10.55343 0.17980111
-20.978495 -10.320302 0.21561356
-21.041903 15.910275 0.19905284
-21.000242 16.147198 0.13634644
-21.084135 57.155743 0.10005297
-20.94092 -11.515722 0.79277295
-20.994883 -10.96235 0.6077913
-20.987568 -10.515735 0.60554057
-21.012066 -10.319228 0.57481951
-20.945436 52.244297 0.66082585
-20.957973 53.291981 0.68538618
-21.133783 60.513496 0.67172438
-20.826801 60.849972 0.75495279
-20.830921 67.468994 0.64689511
-20.969301 -11.01098 0.92193776
-20.986773 -10.585379 0.9867397
-21.019205 60.5891 1.042927
-21.181986 68.015564 0.84185135
-20.839397 -11.248852 1.3851227
-20.995621 -10.352778 1.2811998
-20.636808 -10.522399 -0.52523685
-20.564383 -10.347642 -0.51734084
-20.649544 3.5306807 -0.55276632
-20.66721 16.286444 -0.49420369
-20.591557 -10.993988 -0.22045267
-20.598364 -10.505496 -0.18025282
-20.564066 -10.322435 -0.15618601
-20.70694 7.2772727 -0.028861232
-20.667267 16.31571 -0.22625655
-20.546173 16.496496 -0.22032464
-20.583326 -10.979939 0.19309704
-20.615528 -10.55104 0.18894571
-20.561419 -10.349377 0.20004039
-20.502054 7.0899153 0.25882673
-20.66091 16.249815 0.17052916
-20.522789 16.504694 0.094735786
-20.564863 -11.233535 0.79185796
-20.584309 -10.98363 0.63849574
-20.603905 -10.511207 0.59274387
-20.57778 -10.339756 0.55548477
-20.611351 60.991776 0.63251293
-20.544632 -11.079554 0.9665972
-20.602848 -10.524532 0.9131062
-20.537796 60.909126 1.023069
-20.45023 67.117462 0.99507117
-20.631527 -11.231339 1.3323715
-20.479984 -10.35464 1.2536221
-20.223576 -10.52173 -0.57349181
-20.192286 -10.336529 -0.48141336
-20.124163 1.601536 -0.50910449
-20.097445 7.9605031 -0.41542149
-20.285156 16.643978 -0.57495916
-20.209917 -17.306187 -0.078514531
-20.158089 -10.985175 -0.26719069
-20.252224 -10.519685 -0.19572508
-20.184664 -10.338266 -0.2124522
-20.158049 1.5293624 -0.16369627
-20.36043 6.9280457 -0.26775873
-20.138308 7.9340973 -0.27742723
-20.282269 16.656231 -0.20247288
-20.125027 16.84104 -0.18704514
-20.184145 -10.995294 0.17520663
-20.221947 -10.537255 0.1751956
-20.129477 -10.360014 0.18008862
-20.097752 1.5767887 0.051650357
-20.054213 1.6828835 0.12475938
-20.098589 7.953094 0.096152514
-20.298702 16.323195 0.1865143
-20.249018 16.621941 0.12440509
-20.059917 16.848719 0.10499674
-20.223982 -17.369455 0.5716964
-20.157578 -10.970474 0.62870336
-20.214186 -10.490405 0.59298122
-20.131102 -10.334085 0.53566575
-20.171459 -11.015036 0.92204005
-20.184893 -10.523306 0.92884088
-20.258493 61.158504 1.0379026
-20.231285 66.929848 1.0018456
-20.088047 -11.225354 1.3289546
-20.141888 -10.383562 1.2410735
-20.297207 67.081055 1.2027314
-19.783993 -10.933168 -0.52414578
-19.855038 -10.349809 -0.47654563
-19.903757 1.7071767 -0.59484285
-19.877506 7.8241148 -0.56676394
-19.940481 16.740141 -0.50150186
-19.792183 17.053267 -0.58165574
-19.62541 17.241062 -0.58302748
-19.787195 -10.962636 -0.28354067
-19.84794 -10.495739 -0.24108668
-19.824251 -10.357148 -0.22296587
-19.639559 0.68475157 -0.22181727
-19.915379 1.6509137 -0.13340594
-19.844463 7.5870113 -0.067977577
-19.839811 7.7358599 -0.22564359
-19.772001 17.050289 -0.19083472
-19.628658 17.214693 -0.32601187
-19.978363 57.307724 -0.026158072
-19.771889 -10.965538 0.16820791
-19.815165 -10.523309 0.1520586
-19.8253 -10.31852 0.168678
-19.891994 7.7342319 0.24767049
-19.774136 16.705099 0.15114431
-19.770868 17.015347 0.12625469
-19.649021 52.29248 0.20232005
-19.794977 -10.961768 0.58708817
-19.819899 -10.494247 0.59375221
-19.849024 -10.38324 0.52447844
-19.989342 7.763351 0.4892655
-19.857368 -10.930274 0.96078008
-19.83275 -10.521076 0.9307037
-19.610785 -10.273085 0.90597457
-19.911987 57.687866 1.0785797
-19.775646 66.280914 1.0553789
-19.858654 -11.214805 1.2890081
-19.870926 66.500862 1.2856476
-19.410294 -10.991124 -0.54475379
-19.359446 -10.520391 -0.5851174
-19.395113 -10.330596 -0.48779857
-19.28874 -8.6538858 -0.47648489
-19.200453 -8.3341751 -0.43276298
-19.52025 17.169144 -0.53640044
-19.418354 -10.945648 -0.27935308
-19.375744 -10.52864 -0.19673705
-19.418678 -10.347385 -0.27519768
-19.221514 -9.1289072 -0.075965874
-19.414665 -8.6153851 -0.22838807
-19.418581 0.90714133 -0.25183794
-19.313843 8.5784054 -0.13915797
-19.516991 17.104259 -0.16473135
-19.382223 17.323763 -0.17260261
-19.392643 -10.992327 0.14445707
-19.391144 -10.511237 0.12828094
-19.442423 -10.267517 0.17158638
-19.455145 -9.9512167 0.20713021
-19.400511 -9.376873 0.14471975
-19.375629 -8.9695053 0.12718219
-19.330656 -8.7784128 0.11002747
-19.462841 0.93810141 0.037444994
-19.226652 8.3515177 0.29991314
-19.291344 8.4927464 0.26226071
-19.448317 17.023932 0.16901024
-19.431271 17.29166 0.12373833
-19.364029 -11.024804 0.5917564
-19.420523 -10.476158 0.59886527
-19.481003 -10.390349 0.51445192
-19.481424 -9.6980801 0.68647468
-19.335407 -9.3587303 0.48852995
-19.330427 -9.0306683 0.46017963
-19.247381 -8.772954 0.71965277
-19.218401 8.3748474 0.48627767
-19.246134 8.4017143 0.4886997
-19.282969 65.576431 0.77712011
-19.46092 -10.981995 0.9779852
-19.514641 -10.486682 0.91080546
-19.43103 -10.351856 0.97579449
-19.446432 -9.4395294 1.1757201
-19.305429 -9.1501045 1.1407033
-19.309017 -8.5047998 0.80253863
-19.24645 65.45031 1.035807
-19.317787 -11.200919 1.2769622
-19.236202 -8.7861633 1.3216439
-19.528833 65.858765 1.2614015
-19.013521 -11.046929 -0.53521204
-19.063343 -10.517148 -0.59134477
-18.949326 -10.277533 -0.49052814
-18.897297 -9.864481 -0.58620977
-18.880041 -9.511734 -0.54562891
-18.823952 -8.8526411 -0.45872092
-19.005743 -8.5950403 -0.45434746
-19.086447 8.3252687 -0.50557739
-19.049824 17.437323 -0.58618605
-19.044327 32.527149 -0.59255898
-18.981247 -11.040403 -0.29304186
-18.938437 -10.501446 -0.24608766
-18.955051 -10.306691 -0.30655044
-18.985533 -9.4606524 -0.36278421
-18.981356 -8.8904629 -0.25249273
-18.991827 -8.6340523 -0.19069844
-18.865004 -8.2395372 -0.197841
-18.859587 -0.029153759 -0.11986192
-18.828228 0.15802446 -0.28180352
-19.081659 8.3267746 -0.19268447
-19.120291 8.4339609 -0.072634697
-19.087746 17.509079 -0.19148259
-18.880602 17.715618 -0.18644789
-19.108395 65.774689 -0.25522855
-19.022943 -11.065596 0.12437458
-18.920055 -10.47465 0.078026637
-18.856831 -10.059867 0.15032627
-19.025917 -9.8644819 0.15362735
-19.05595 -9.3322496 0.156452
-18.991695 -8.9812241 0.11022367
-18.970591 -8.668129 0.14790606
-18.901403 -8.1205473 0.25375307
-18.80048 0.21678542 0.1742807
-19.158087 8.2568064 0.1146356
-19.18371 8.4035416 0.37140226
-19.101217 17.172693 0.11237387
-19.003511 17.432795 0.1313481
-18.88047 17.683701 0.1006268
-19.038412 -11.023948 0.68805629
-18.95611 -10.590693 0.72411996
-18.898645 -10.23199 0.62590951
-19.028347 -9.6844034 0.64986855
-19.11108 -9.4378242 0.51856673
-18.94742 -8.9576674 0.62465948
-18.968105 -8.623251 0.68580699
-19.04994 -8.3992662 0.62003148
-19.02726 -11.09716 1.0816724
-18.920115 -10.526465 1.1007476
-18.849207 -9.3817263 0.99027067
-18.874985 -8.9548244 0.98231721
-18.958708 -8.6998625 0.99923611
-19.018684 65.528076 1.0562752
-18.999477 65.639481 1.0215757
-18.989796 -11.221075 1.2727205
-18.904943 -9.555604 1.3908335
-18.935223 -8.9233332 1.385049
-18.879467 -8.681344 1.241599
-18.927774 65.182884 1.3503249
-18.975908 65.492744 1.2269564
-18.736506 -11.136503 -0.42991272
-18.614212 -10.241412 -0.50361544
-18.65641 -9.8001442 -0.42209566
-18.652157 -9.419795 -0.4609406
-18.557852 -8.9159842 -0.50894344
-18.577866 -8.6301556 -0.53083116
-18.42786 -8.267066 -0.55466408
-18.499624 17.309875 -0.46918231
-18.574919 -11.048923 -0.39262906
-18.528786 -10.508399 -0.10283899
-18.627224 -10.223839 -0.37390843
-18.663139 -9.4504452 -0.27819648
-18.571289 -8.9569912 -0.29552361
-18.588732 -8.552042 -0.18066613
-18.551811 -8.1850252 -0.15041126
-18.492561 -7.9398999 -0.16041856
-18.434879 -0.15002793 -0.22331472
-18.592829 0.33428219 -0.22680566
-18.553782 9.0491066 -0.12828813
-18.735504 17.471025 -0.3872321
-18.626011 17.848948 -0.19865121
-18.483126 18.064064 -0.23956135
-18.682076 -10.637547 0.031803966
-18.582884 -10.177816 0.092566833
-18.619917 -9.8189974 0.09856277
-18.642731 -9.3888235 0.14205442
-18.59178 -8.9737272 0.10453428
-18.58433 -8.6335068 0.16341944
-18.573553 -8.1791973 0.17547676
-18.573582 -7.9523673 0.19029404
-18.77878 0.20188566 0.02956632
-18.512892 9.0014009 0.20189413
-18.709194 17.443642 0.1130483
-18.559507 17.782715 0.080899023
-18.53396 -10.998875 0.75343388
-18.697563 -10.504906 0.66683549
-18.615013 -9.8539047 0.56197363
-18.612011 -9.4771938 0.52310681
-18.625763 -8.9882097 0.63371581
-18.597845 -8.5779457 0.60108465
-18.604099 -8.1844969 0.55125827
-18.512503 -7.9886017 0.50462145
-18.463242 8.85847 0.48961794
-18.644392 65.82592 0.61350125
-18.612772 -11.05654 0.96039701
-18.529173 -10.49706 1.0188402
-18.587126 -10.397706 0.98550636
-18.414749 -9.7415009 1.0365914
-18.585516 -9.2474098 0.95917207
-18.570099 -9.0790701 1.0190309
-18.656485 -8.6438904 0.97018486
-18.421989 65.882164 0.9416281
-18.662849 -11.216113 1.3006954
-18.563967 -8.8927002 1.313202
-18.666128 65.545265 1.302568
-18.657103 65.673439 1.2828035
-18.184698 -10.856983 -0.53654301
-18.225389 -10.50144 -0.50711459
-18.184048 -10.272807 -0.52002347
-18.225075 -9.3640976 -0.59148914
-18.197439 -8.9973259 -0.51579952
-18.221361 -8.1898432 -0.52889413
-18.374126 8.8437119 -0.44146055
-18.211994 17.290163 -0.47870177
-18.26347 17.931286 -0.53353769
-18.082254 -10.94083 -0.26248825
-18.184183 -10.448952 -0.099072859
-18.134045 -10.268017 -0.16619293
-18.19875 -9.8494759 -0.10939076
-18.175215 -9.3910446 -0.31964654
-18.232 -8.8977385 -0.27027845
-18.232557 -8.5406542 -0.19705693
-18.248186 -8.2792425 -0.14628841
-18.381521 -7.9756246 -0.089322008
-18.264479 0.10928617 -0.22517379
-18.334089 8.7414427 -0.24067569
-18.353634 8.8754215 -0.092756867
-18.300213 17.882311 -0.19592708
-18.174797 18.185862 -0.18180923
-18.019108 18.417986 -0.097783908
-18.195261 -10.500784 0.02079214
-18.318199 -10.270742 0.046332393
-18.181143 -9.860177 0.13799427
-18.173475 -9.4688702 0.079280645
-18.174036 -8.9477625 0.097108126
-18.193012 -8.557354 0.12790966
-18.146805 -8.2677917 0.18537453
-18.365986 -0.13143191 0.013505442
-18.320713 0.048876621 0.014872554
-18.380526 8.7907143 0.18274294
-18.373104 8.8863125 0.31285992
-18.250513 17.853678 0.10854961
-18.18284 18.221115 0.062933728
-18.082975 -11.22958 0.77071613
-18.168947 -10.899539 0.76601154
-18.170128 -10.4941 0.58586389
-18.199377 -10.107436 0.49229351
-18.098623 -9.9895792 0.63298756
-18.202179 -9.3536272 0.68619895
-18.156788 -8.9611282 0.62345594
-18.186565 -8.6211567 0.59437907
-18.293758 -8.2587481 0.53112614
-18.079716 51.644676 0.58714634
-18.18615 66.188637 0.53493667
-18.032093 -11.052584 0.84589881
-18.18224 -10.519906 1.0371975
-18.054291 -10.390028 1.1789423
-18.174194 -9.8546629 0.96320397
-18.170137 -9.333312 0.97004372
-18.225363 -9.0196362 0.96179438
-18.029104 -8.7318945 1.0844804
-18.358671 65.954292 1.0444232
-18.275816 66.031509 1.078331
-18.178026 -9.4392023 1.3491758
-18.224743 -9.0353289 1.3457839
-18.104229 5.1951942 1.2844461
-18.300451 65.982216 1.2477251
-17.792761 -10.942554 -0.54141527
-17.786974 -10.551406 -0.59209752
-17.818441 -10.293249 -0.50471509
-17.77458 -9.2704897 -0.46600267
-17.83963 -9.1027298 -0.52526999
-17.744699 -8.6695805 -0.56249619
-17.645117 9.5593395 -0.57830256
-17.746187 9.6788445 -0.58323854
-17.818865 17.249802 -0.49179119
-17.885048 17.894133 -0.46056291
-17.875008 18.353617 -0.58117181
-17.759594 -10.905529 -0.1681477
-17.773087 -10.506011 -0.17128794
-17.802458 -10.31573 -0.22861743
-17.841639 -9.9463224 -0.13002855
-17.89135 -9.388546 -0.19206421
-17.832359 -8.9813614 -0.18511482
-17.962234 -8.7683716 -0.16538255
-17.623686 9.5641851 -0.14364019
-17.728476 9.6611605 -0.23165062
-17.887115 18.337006 -0.18331613
-17.748585 18.497341 -0.20847715
-17.807074 -10.922253 0.25441748
-17.813925 -10.461071 0.091684505
-17.870197 -10.215083 0.12946112
-17.842714 -9.8454838 0.21432
-17.814465 -9.3811646 0.16288137
-17.845438 -8.9578609 0.17511208
-17.866863 -8.6234999 0.14292903
-17.93268 -8.3159037 0.21756768
-17.646133 9.4616632 0.2275196
-17.816721 9.669672 0.068145454
-17.944874 17.94228 0.094919048
-17.78236 18.256701 0.090896897
-17.736237 18.469255 0.063252494
-17.754419 -10.975708 0.73424125
-17.76932 -10.473812 0.59526968
-17.880346 -10.26224 0.55248737
-17.748365 -9.665803 0.48717979
-17.841805 -9.3387747 0.5410018
-17.855206 -9.017293 0.58141345
-17.877182 -8.5758953 0.55270022
-17.854633 -8.3207464 0.52506894
-17.623053 5.1241021 0.56372923
-17.702618 5.3008304 0.63897806
-17.773983 -11.006071 0.84749019
-17.82531 -10.474991 0.987764
-17.654568 -10.395214 1.1442776
-17.973042 -9.4193296 0.94263083
-17.633463 4.7221227 1.018672
-17.729647 4.990696 0.99202448
-17.727728 5.3785725 1.0597322
-17.974077 66.108032 1.0697061
-17.719284 4.9941726 1.3947452
-17.716089 5.3414536 1.3177251
-17.977884 66.103264 1.3041438
-17.358624 -11.060681 -0.58292842
-17.431536 -10.301538 -0.52529973
-17.458954 -9.9088697 -0.49806294
-17.540144 -9.262888 -0.45658034
-17.279675 -8.3385468 -0.53016579
-17.517307 9.4585915 -0.5906437
-17.339806 17.135567 -0.50692266
-17.337326 18.196644 -0.46969423
-17.409826 -10.927179 -0.13130489
-17.376741 -10.509125 -0.10158988
-17.391092 -10.342479 -0.23002763
-17.512827 -9.2407331 -0.15123466
-17.394739 -9.0148211 -0.18757288
-17.233986 -8.6762924 -0.19701627
-17.261618 -8.3009958 -0.25228432
-17.519037 -0.47936794 -0.2465885
-17.402323 -0.1896174 -0.21374094
-17.480839 4.6052151 -0.079334602
-17.525385 9.3560295 -0.21637484
-17.361929 9.8745317 -0.14742593
-17.55834 18.34919 -0.30168095
-17.450451 18.653788 -0.17111571
-17.214823 18.890461 -0.21417448
-17.38269 -10.945518 0.1162682
-17.364136 -10.544889 0.12976243
-17.453562 -10.362488 0.22350881
-17.394333 -9.3284731 0.040358443
-17.377581 -8.913228 0.14053455
-17.36977 -8.7636414 0.067051418
-17.222816 -8.3203392 0.043945156
-17.504232 -0.35539141 0.10384028
-17.348299 5.5473742 0.15649764
-17.248592 5.8027506 0.13913651
-17.21907 6.2028999 0.1168465
-17.250868 6.4153738 0.13116686
-17.486898 9.3817072 0.16454497
-17.307886 9.7906094 0.21845059
-17.503525 18.331369 0.11733913
-17.399889 18.6308 0.070982881
-17.225515 18.845594 0.024781073
-17.433842 -10.987849 0.5571875
-17.413677 -10.495929 0.62900412
-17.349977 -10.373668 0.66994178
-17.357269 -9.0347462 0.48514825
-17.208691 4.2853818 0.73298657
-17.577307 4.6777921 0.79284114
-17.363682 5.06778 0.67458254
-17.433285 5.3472586 0.59937316
-17.269753 5.7686377 0.61624187
-17.315992 6.1176634 0.58351701
-17.521069 66.628311 0.77279973
-17.404673 -11.059675 0.85016364
-17.429968 -10.500519 0.9437834
-17.41012 -10.377387 0.92563623
-17.379406 4.6506286 1.0329133
-17.396961 4.999908 0.96151
-17.410521 5.3725734 0.947092
-17.302832 5.8451915 0.92665905
-17.346434 6.1330476 0.90627182
-17.264715 66.615601 1.0855368
-17.362873 4.6618028 1.3639406
-17.399767 5.0367937 1.3058147
-17.365568 5.3897104 1.3271539
-17.372242 5.7768822 1.362619
-17.426836 66.656883 1.2211686
-17.026991 -10.927116 -0.54566449
-17.031982 -10.652596 -0.59566224
-17.032993 -10.295841 -0.50436348
-16.904203 -8.4952335 -0.57285929
-16.925783 -8.2711906 -0.56643188
-17.185152 9.5611706 -0.42164803
-17.004133 9.7880182 -0.44092163
-17.024464 16.962652 -0.51511824
-17.151611 17.935944 -0.48837757
-17.138172 18.614824 -0.53880453
-16.845337 19.200068 -0.41702116
-16.906094 67.599632 -0.47914466
-16.93866 -10.855214 -0.19385025
-16.992014 -10.57735 -0.079484276
-17.016214 -10.338302 -0.17319979
-17.012175 -8.5237007 -0.23912869
-16.93461 -8.2981625 -0.1957435
-16.833368 -7.9481878 -0.25487149
-17.064159 4.2308307 -0.07451617
